28.575 28.5596 28.5528 28.5478 28.5472 28.5225 28.5276 28.5155 28.4977 28.4881 28.4859 28.4787 28.4675 28.4545 28.4543 28.4457 28.4371 28.4424 28.434 28.4097 28.4062 28.401 28.4063 28.4043 28.3566 28.3265 28.3301 28.3436 28.3619 28.3604 28.3609 28.3507 28.3138 28.3213 28.3235 28.31 28.3088 28.2995 28.2907 28.2973 28.28 28.2768 28.2817 28.2706 28.25 28.2689 28.2531 28.2598 28.244 28.2393 28.2306 28.2292 28.2251 28.2277 28.2291 28.2179 28.2086 28.2018 28.2045 28.1988 28.1931 28.1917 28.2058 28.1899 28.1867 28.1808 28.1755 28.1846 28.1696 28.1703 28.1581 28.1542 28.1618 28.1505 28.1521 28.1547 28.1426 28.1574 28.1406 28.1414 28.1478 28.1396 28.1345 28.1278 28.1307 28.1233 28.1262 28.1387 28.1608 28.1374 28.1144 28.1019 28.1024 28.1058 28.1179 28.1212 28.114 28.1007 28.0869 28.0967 28.0887 28.0803 28.0742 28.0682 28.0633 28.0564 28.0566 28.0604 28.0577 28.0849 28.0741 28.0877 28.0821 28.0976 28.0824 28.0961 28.0976 28.1031 28.1008 28.0938 28.0958 28.1008 28.1157 28.1075 28.1215 28.1198 28.1061 28.1153 28.1103 28.1228 28.1198 28.1274 28.1139 28.1167 28.1339 28.123 28.1557 28.1372 28.148 28.1458 28.143 28.1514 28.1349 28.1522 28.1467 28.1469 28.148 28.1508 28.1597 28.1497 28.1507 28.1622 28.1686 28.1872 28.179 28.1947 28.187 28.1886 28.1948 28.1874 28.177 28.2028 28.1887 28.2136 28.2214 28.2135 28.2274 28.2419 28.2472 28.2398 28.2334 28.2338 28.2489 28.2544 28.2527 28.2597 28.2839 28.2765 28.2731 28.2866 28.2986 28.2914 28.2735 28.3054 28.3083 28.3004 28.3183 28.3208 28.3343 28.3516 28.3337 28.3458 28.3433 28.3396 28.3619 28.3576 28.3671 28.399 28.382 28.4122 28.4167 28.4082 28.4103 28.437 28.4274 28.4443 28.4379 28.4484 28.4537 28.4842 28.4614 28.4736 28.5175 28.5346 28.5468 28.5632 28.5614 28.5634 28.5666 28.5622 28.5553 28.5491 28.5487 28.5475 28.5643 28.5729 28.5955 28.612 28.6318 28.6655 28.6543 28.6444 28.6733 28.6703 28.6851 28.7071 28.7276 28.7193 28.7246 28.7582 28.7842 28.7966 28.7975 28.7768 28.8117 28.8277 28.8249 28.8422 28.8431 28.8532 28.8747 28.8873 28.9245 28.9212 28.9296 28.9434 28.9644 28.956 29.0016 29.002 29.0128 29.0064 29.044 29.0693 29.0455 29.0675 29.0922 29.1214 29.1226 29.1351 29.1481 29.1495 29.187 29.1923 29.1903 29.2042 29.243 29.2721 29.2746 29.2947 29.2924 29.3426 29.315 29.3247 29.363 29.395 29.3965 29.3897 29.4122 29.4618 29.4886 29.4559 29.4813 29.5286 29.561 29.5427 29.5372 29.6058 29.5668 29.5869 29.634 29.6734 29.6699 29.6985 29.7082 29.7237 29.7555 29.7667 29.8145 29.7624 29.795 29.8099 29.8579 29.8597 29.9208 29.8724 29.9192 29.9634 29.9458 29.987 29.9986 30.0712 30.0981 30.1053 30.1558 30.1634 30.1916 30.1956 30.1982 30.2086 30.2398 30.2658 30.3032 30.2788 30.331 30.3378 30.3569 30.3798 30.3871 30.412 30.4331 30.4574 30.4683 30.491 30.5371 30.5635 30.5869 30.6159 30.6093 30.6253 30.6331 30.6884 30.7031 30.7018 30.6971 30.7173 30.7231 30.7532 30.7715 30.7918 30.8153 30.8364 30.877 30.8694 30.9023 30.9137 30.9401 30.9731 30.9931 31.0342 31.044 31.0843 31.0927 31.1117 31.147 31.1828 31.2029 31.2718 31.3034 31.3017 31.329 31.3991 31.3806 31.4035 31.4592 31.4902 31.5322 31.5613 31.553 31.6037 31.5727 31.6695 31.6754 31.7254 31.7599 31.7682 31.8057 31.8179 31.7761 31.8591 31.9025 31.965 31.9264 32.006 31.9855 32.0591 32.0965 32.1455 32.1225 32.1865 32.1688 32.2314 32.2794 32.3126 32.3259 32.3503 32.3692 32.4087 32.4693 32.4709 32.5532 32.5421 32.5653 32.587 32.665 32.6695 32.6789 32.7455 32.7561 32.8115 32.7991 32.863 32.8792 32.9549 33.0044 32.971 33.0779 33.0616 33.1371 33.1286 33.1827 33.1906 33.273 33.2856 33.3271 33.376 33.3978 33.4267 33.4252 33.511
28.5233 28.5077 28.4813 28.493 28.4803 28.4731 28.468 28.4451 28.4412 28.4386 28.4248 28.4247 28.4226 28.4008 28.4025 28.3932 28.3952 28.3826 28.372 28.3695 28.3683 28.3466 28.3429 28.3159 28.288 28.2822 28.2981 28.3156 28.3268 28.3297 28.3128 28.2866 28.2782 28.2719 28.2682 28.2532 28.2472 28.2603 28.2536 28.2406 28.2387 28.2238 28.2142 28.2299 28.2242 28.2075 28.2044 28.1956 28.1823 28.182 28.1776 28.1739 28.1666 28.1756 28.1693 28.1501 28.1568 28.1523 28.1537 28.1451 28.1456 28.1366 28.1372 28.1298 28.124 28.1259 28.1208 28.1336 28.1094 28.1116 28.1102 28.1078 28.0997 28.1025 28.0971 28.0897 28.0955 28.0952 28.0873 28.0877 28.0858 28.0917 28.0782 28.0668 28.0654 28.0698 28.089 28.0975 28.0708 28.061 28.0632 28.0541 28.0642 28.0686 28.0593 28.0505 28.0442 28.0543 28.0538 28.0452 28.0511 28.0428 28.0356 28.0364 28.0293 28.0193 28.0157 28.0114 28.0107 27.9996 28.0201 28.035 28.0434 28.0478 28.0271 28.0656 28.0677 28.054 28.0358 28.0598 28.0543 28.0468 28.044 28.0509 28.0519 28.0695 28.0567 28.0649 28.0669 28.063 28.0701 28.0795 28.0621 28.0603 28.0727 28.0737 28.0793 28.0742 28.0834 28.0753 28.0955 28.0953 28.1121 28.0925 28.1036 28.0852 28.1079 28.1037 28.1109 28.0982 28.1283 28.0989 28.121 28.1252 28.1313 28.1436 28.1376 28.1394 28.1372 28.139 28.1673 28.1359 28.1594 28.1546 28.1651 28.1635 28.1494 28.1917 28.185 28.1736 28.1913 28.2003 28.21 28.1974 28.2116 28.1909 28.2167 28.2262 28.248 28.2383 28.2257 28.2635 28.2435 28.2433 28.2699 28.2653 28.2646 28.2657 28.2734 28.2674 28.3089 28.2874 28.3024 28.307 28.3212 28.2972 28.325 28.3129 28.3296 28.3359 28.3422 28.3709 28.3672 28.3954 28.3868 28.3821 28.3774 28.4057 28.4089 28.4099 28.4183 28.4228 28.4476 28.4373 28.459 28.4846 28.5069 28.5214 28.5222 28.5266 28.5331 28.5384 28.5313 28.5187 28.5242 28.52 28.5117 28.5548 28.5991 28.5909 28.6128 28.5935 28.6251 28.6609 28.645 28.6443 28.6504 28.6629 28.6908 28.6888 28.6868 28.7165 28.7153 28.7141 28.7467 28.7571 28.777 28.7816 28.7985 28.8394 28.8331 28.8477 28.8467 28.8605 28.8758 28.8866 28.9383 28.898 28.9471 28.9479 28.954 28.9902 29.0084 28.9974 29.0287 29.0443 29.047 29.0538 29.0703 29.0635 29.0978 29.1018 29.1153 29.1226 29.1372 29.1626 29.1913 29.1783 29.2323 29.218 29.2151 29.2425 29.2486 29.277 29.3241 29.3226 29.313 29.3393 29.3517 29.4246 29.416 29.3911 29.4539 29.4421 29.4628 29.4675 29.5243 29.5168 29.5153 29.5621 29.5706 29.5906 29.6301 29.6475 29.6766 29.6827 29.6796 29.6933 29.6983 29.7386 29.7275 29.7768 29.7774 29.8004 29.8191 29.8671 29.8781 29.9086 29.9171 29.9056 29.94 29.9423 30.0004 30.0254 30.0922 30.0549 30.139 30.1369 30.1355 30.1446 30.1699 30.1906 30.1898 30.2559 30.2579 30.2495 30.3182 30.3161 30.3454 30.3626 30.3554 30.412 30.4321 30.4643 30.483 30.4753 30.4885 30.495 30.5604 30.591 30.5843 30.6465 30.6553 30.6765 30.6919 30.6907 30.7093 30.7052 30.7213 30.7346 30.7471 30.7734 30.8011 30.8318 30.8431 30.8654 30.8874 30.9182 30.9239 30.9466 30.9804 31.015 31.0388 31.0454 31.0798 31.1042 31.1356 31.1978 31.2504 31.2036 31.2942 31.3284 31.315 31.3553 31.3828 31.3899 31.468 31.4748 31.5356 31.5289 31.5795 31.602 31.6105 31.6495 31.6821 31.7135 31.6575 31.7688 31.7953 31.8273 31.8155 31.8951 31.9198 31.9201 31.9572 31.9855 31.9891 32.0243 32.0658 32.086 32.1362 32.1771 32.1773 32.2261 32.2625 32.2818 32.3409 32.361 32.4026 32.3874 32.4656 32.4483 32.5106 32.5323 32.5797 32.5693 32.6375 32.6084 32.6938 32.759 32.7687 32.8215 32.8255 32.858 32.9095 32.9322 32.9051 33.0224 33.0585 33.0894 33.1203 33.1076 33.1595 33.2288 33.2102 33.3031 33.3287 33.3544 33.3673 33.4494
28.4574 28.4541 28.4408 28.4379 28.4267 28.4254 28.4112 28.4004 28.3948 28.3799 28.3713 28.367 28.37 28.3513 28.3648 28.347 28.3328 28.3288 28.3084 28.3142 28.3171 28.2989 28.2681 28.2508 28.243 28.249 28.2736 28.277 28.2704 28.2603 28.2521 28.2285 28.2321 28.2212 28.2014 28.1965 28.1985 28.1851 28.1771 28.1809 28.1826 28.1677 28.1735 28.1587 28.1637 28.1476 28.1507 28.1337 28.1473 28.1333 28.1268 28.1187 28.1285 28.1101 28.1153 28.108 28.1032 28.1094 28.0936 28.092 28.0886 28.0896 28.0901 28.0833 28.083 28.0727 28.0783 28.0643 28.0767 28.061 28.0564 28.065 28.0529 28.072 28.0623 28.0447 28.0604 28.0397 28.0526 28.0425 28.043 28.0211 28.0235 28.0288 28.0283 28.0242 28.0357 28.0034 27.9943 28.0015 28.005 28.0368 28.0224 28.031 28.0116 28.0026 27.9952 27.9941 28.0088 28.0071 28.0013 28.0087 28.014 27.9959 27.9909 27.9805 27.9841 27.9636 27.9594 27.9513 27.9539 27.953 27.9661 27.9814 27.9862 27.994 28.0045 27.9998 27.98 27.9933 28.0029 28.0064 27.9949 27.9968 28.0278 28.0035 28.0244 27.9987 28.0229 28.0361 28.0255 28.0185 28.014 28.0175 28.0229 28.0217 28.0292 28.0348 28.0404 28.0372 28.0427 28.043 28.0392 28.0402 28.0377 28.0518 28.0527 28.0715 28.0434 28.0621 28.0516 28.056 28.0618 28.0704 28.0726 28.0793 28.0821 28.0743 28.0791 28.1042 28.0853 28.0918 28.0825 28.1227 28.1043 28.0955 28.1198 28.1296 28.1213 28.1274 28.1458 28.1294 28.1384 28.1432 28.138 28.1671 28.1579 28.1669 28.1576 28.1741 28.1767 28.1877 28.2062 28.1942 28.2087 28.2009 28.2348 28.2168 28.2101 28.228 28.2463 28.2297 28.253 28.2678 28.2444 28.2765 28.2746 28.2839 28.2839 28.2924 28.3028 28.3079 28.3147 28.345 28.3104 28.3443 28.3248 28.3336 28.3441 28.3692 28.3699 28.362 28.3809 28.3983 28.3926 28.4151 28.4143 28.472 28.4612 28.4914 28.4989 28.4999 28.4934 28.492 28.4881 28.4814 28.4921 28.5321 28.5358 28.5233 28.5277 28.5498 28.567 28.5914 28.5827 28.5904 28.6024 28.6234 28.6573 28.6411 28.641 28.6529 28.6721 28.6906 28.714 28.7122 28.7062 28.7211 28.7313 28.7598 28.7737 28.7965 28.7901 28.821 28.8192 28.8335 28.8569 28.8647 28.8804 28.8827 28.9339 28.9177 28.9173 28.9577 28.9526 28.9762 28.9613 28.9815 29.025 29.0443 29.0296 29.0555 29.073 29.0914 29.086 29.1208 29.1292 29.1527 29.13 29.1722 29.2242 29.2236 29.2066 29.2357 29.2536 29.2615 29.2639 29.2857 29.2891 29.3089 29.3399 29.3584 29.36 29.39 29.411 29.428 29.4658 29.4799 29.5032 29.4833 29.4956 29.5271 29.5405 29.5689 29.5755 29.5793 29.6391 29.6561 29.6451 29.6695 29.7025 29.6819 29.7073 29.7364 29.784 29.7735 29.814 29.8256 29.8564 29.8555 29.8902 29.8689 29.8758 29.9397 29.9216 29.999 30.0202 30.0485 30.0492 30.1175 30.0626 30.1282 30.1441 30.1854 30.168 30.1938 30.2291 30.2682 30.2908 30.3297 30.3378 30.3369 30.3352 30.3855 30.4385 30.4503 30.4468 30.4819 30.4824 30.5282 30.5482 30.5244 30.5827 30.5822 30.6219 30.6432 30.6693 30.6853 30.6951 30.7053 30.7005 30.7144 30.749 30.7564 30.7769 30.7962 30.8164 30.8491 30.8753 30.8854 30.9045 30.9259 30.9835 30.9838 31.0166 31.0589 31.0834 31.1785 31.1451 31.2284 31.2323 31.2223 31.2764 31.262 31.3276 31.3485 31.3827 31.4244 31.4611 31.4652 31.4743 31.5282 31.5423 31.5855 31.5819 31.6313 31.6721 31.674 31.7178 31.7503 31.7592 31.788 31.7972 31.8807 31.91 31.8846 31.9441 31.9869 32.0308 32.0477 32.0517 32.0914 32.119 32.147 32.2017 32.2241 32.2497 32.3 32.3074 32.3639 32.3537 32.3969 32.4453 32.4829 32.4767 32.5531 32.5807 32.6064 32.6309 32.671 32.6722 32.7211 32.7179 32.7631 32.8266 32.8873 32.8755 32.9254 32.9598 32.9628 33.0652 33.0429 33.1298 33.1559 33.1936 33.2164 33.241 33.27 33.3331 33.3183
28.4249 28.4011 28.3933 28.3956 28.3769 28.3592 28.3509 28.3532 28.347 28.3225 28.3139 28.3131 28.3032 28.3008 28.2843 28.2924 28.2842 28.2815 28.2639 28.2597 28.2447 28.2096 28.193 28.1959 28.2028 28.2197 28.2383 28.2264 28.2133 28.2025 28.1917 28.19 28.1743 28.1733 28.157 28.1623 28.153 28.1368 28.1403 28.1225 28.1137 28.1161 28.1158 28.0988 28.1113 28.106 28.0986 28.0917 28.0861 28.0841 28.0883 28.0606 28.0706 28.0633 28.0557 28.0712 28.0495 28.0491 28.0421 28.0455 28.041 28.0413 28.0282 28.0354 28.0273 28.0254 28.0273 28.0166 28.0058 28.007 28.0234 28.0151 28.0117 28.0062 27.9932 27.9935 27.9947 27.9895 27.9973 27.9837 27.9897 27.9727 27.9707 27.9749 27.9711 27.9809 27.9559 27.9354 27.9474 27.9593 27.9813 27.9822 27.9762 27.9865 27.9851 27.9814 27.962 27.9674 27.9558 27.9482 27.9449 27.9678 27.9756 27.9661 27.9566 27.9481 27.9386 27.9348 27.9209 27.9154 27.9115 27.9032 27.9103 27.9135 27.9337 27.941 27.9553 27.9387 27.9703 27.9659 27.9429 27.9502 27.9649 27.963 27.9444 27.9612 27.9474 27.9479 27.9587 27.953 27.969 27.9886 27.9568 27.9627 27.9699 27.9739 27.9971 27.9736 28.0028 27.9927 27.9869 28.0065 27.9837 28.0085 28.0001 27.9967 27.9937 27.9895 28.0014 27.9997 28.013 28.0041 28.0134 28.0289 28.0288 28.0081 28.0341 28.037 28.0488 28.0514 28.0363 28.0624 28.0471 28.057 28.0385 28.05 28.058 28.0637 28.0711 28.0694 28.0985 28.0763 28.0951 28.0847 28.0925 28.1001 28.0949 28.1122 28.114 28.1376 28.1269 28.1311 28.1398 28.1387 28.1537 28.1424 28.1519 28.1797 28.1779 28.1755 28.1788 28.1998 28.1798 28.2016 28.2064 28.2123 28.2307 28.2359 28.2574 28.247 28.2456 28.2509 28.2357 28.2546 28.2655 28.2724 28.2866 28.2954 28.2927 28.308 28.324 28.3324 28.3338 28.3301 28.3539 28.3559 28.3492 28.3739 28.3598 28.4066 28.4416 28.4333 28.4496 28.4671 28.4615 28.4586 28.4758 28.47 28.4451 28.4827 28.4968 28.4894 28.4966 28.5232 28.5203 28.5408 28.5941 28.5597 28.5635 28.5756 28.6038 28.6093 28.6365 28.6204 28.648 28.6454 28.6755 28.6782 28.6842 28.7046 28.715 28.6979 28.7536 28.7587 28.7497 28.7663 28.7828 28.7966 28.8078 28.824 28.8229 28.8734 28.8614 28.8959 28.9049 28.921 28.9237 28.9454 28.9301 28.9438 28.9736 28.9884 28.9972 29.0213 29.0421 29.0571 29.0385 29.0811 29.097 29.0976 29.1279 29.1322 29.1547 29.1891 29.1961 29.1935 29.1899 29.2514 29.2432 29.2971 29.2875 29.3024 29.3208 29.3531 29.3534 29.3619 29.3878 29.3979 29.4372 29.4412 29.4604 29.4512 29.4982 29.5017 29.5418 29.5581 29.5254 29.541 29.6037 29.6198 29.6088 29.6442 29.6748 29.6633 29.7287 29.7304 29.7304 29.7637 29.7976 29.8054 29.8057 29.8368 29.8515 29.876 29.9393 29.9204 29.9098 29.9665 29.9889 30.0111 30.0392 30.1137 30.1277 30.1105 30.1325 30.1666 30.1722 30.1873 30.1848 30.2631 30.279 30.258 30.3204 30.3481 30.3689 30.3636 30.3919 30.4101 30.4202 30.4579 30.4553 30.4903 30.515 30.5101 30.5829 30.5469 30.5773 30.6294 30.6655 30.6828 30.6789 30.6998 30.7075 30.7132 30.7327 30.7404 30.7615 30.7683 30.8234 30.8453 30.8522 30.8934 30.9114 30.941 30.9669 31.0141 31.0373 31.1054 31.1388 31.1307 31.132 31.1744 31.2103 31.2308 31.297 31.2857 31.3443 31.341 31.353 31.3641 31.421 31.4287 31.4876 31.5067 31.5305 31.5611 31.5867 31.5955 31.6207 31.6749 31.6935 31.7264 31.7091 31.8021 31.8157 31.8561 31.8956 31.9093 31.891 31.9602 32.021 32.0301 32.0445 32.0385 32.1332 32.139 32.1749 32.2173 32.2669 32.3046 32.3351 32.3553 32.3573 32.3993 32.3988 32.4719 32.5123 32.5299 32.5449 32.5745 32.6396 32.6352 32.6921 32.7122 32.7454 32.8289 32.8247 32.8544 32.8883 32.936 32.9516 32.9804 33.0403 33.0806 33.1143 33.17 33.2104 33.2316 33.2572 33.2715
28.3528 28.3452 28.3413 28.3308 28.3353 28.3077 28.3068 28.3006 28.2875 28.2828 28.2688 28.2546 28.2463 28.2565 28.2371 28.2395 28.2144 28.2266 28.2128 28.1987 28.1592 28.1391 28.1586 28.1669 28.1775 28.1836 28.1904 28.1685 28.1575 28.1494 28.1282 28.1188 28.1186 28.1045 28.1142 28.1035 28.0961 28.0862 28.0801 28.0861 28.074 28.0713 28.058 28.0477 28.0422 28.0476 28.0488 28.0364 28.0294 28.0377 28.0266 28.0163 28.0153 28.0103 28.0118 28.0071 27.9991 27.9997 27.9926 27.9958 27.9795 27.9867 27.9811 27.9928 27.9763 27.9682 27.9751 27.9654 27.977 27.961 27.9667 27.9647 27.9513 27.9564 27.9497 27.947 27.9583 27.9415 27.9334 27.9239 27.9259 27.9302 27.934 27.9231 27.9201 27.8911 27.8923 27.9007 27.9 27.929 27.9354 27.9333 27.9139 27.922 27.9239 27.9308 27.9307 27.9212 27.9142 27.9077 27.9054 27.9135 27.9245 27.9265 27.9203 27.9111 27.9072 27.8988 27.8971 27.8903 27.8668 27.8644 27.8561 27.8484 27.8592 27.868 27.8818 27.9114 27.8729 27.8962 27.8866 27.9008 27.9016 27.9072 27.9191 27.8839 27.9028 27.9174 27.9171 27.9146 27.9224 27.9266 27.922 27.9174 27.9149 27.9365 27.9186 27.9202 27.9393 27.9369 27.9315 27.9226 27.9467 27.9447 27.94 27.9367 27.9368 27.9419 27.9594 27.9589 27.9539 27.9589 27.9541 27.9751 27.9488 27.988 27.9793 27.98 27.9742 27.9804 27.9934 28.0058 28.0141 28.0142 28.0015 28.0124 28.0164 28.0071 28.0289 28.0255 28.0336 28.0429 28.0305 28.0468 28.0436 28.0719 28.0674 28.0714 28.0536 28.0754 28.0667 28.077 28.0738 28.0898 28.1031 28.1172 28.1053 28.1195 28.1173 28.1114 28.1454 28.1396 28.1599 28.1582 28.1632 28.1578 28.1721 28.169 28.1862 28.2002 28.1894 28.1848 28.2053 28.2094 28.207 28.2253 28.2307 28.2456 28.2671 28.2502 28.2593 28.2634 28.271 28.2928 28.2946 28.3131 28.3103 28.3087 28.3298 28.3315 28.3513 28.3581 28.3678 28.378 28.4105 28.4261 28.4387 28.4274 28.414 28.4203 28.414 28.43 28.4526 28.4739 28.468 28.4604 28.4947 28.5082 28.5024 28.5272 28.5428 28.5432 28.5652 28.6002 28.5903 28.5782 28.6046 28.6159 28.6482 28.6449 28.6597 28.6701 28.6645 28.6999 28.7165 28.6874 28.7482 28.7397 28.765 28.8064 28.8046 28.8402 28.8301 28.8281 28.8158 28.8644 28.8804 28.904 28.8802 28.8856 28.9339 28.9424 28.9487 28.9607 28.9628 28.9843 29.0194 29.0131 29.0224 29.0613 29.0365 29.0983 29.0973 29.1405 29.1277 29.1275 29.1828 29.1644 29.1815 29.1861 29.2156 29.2111 29.2517 29.2685 29.3007 29.2922 29.3219 29.3631 29.3317 29.3654 29.363 29.4276 29.4169 29.4389 29.4517 29.4794 29.527 29.5007 29.548 29.5678 29.5694 29.596 29.6073 29.6263 29.6465 29.6505 29.637 29.7099 29.7162 29.7214 29.7647 29.7721 29.764 29.8146 29.8487 29.8573 29.8572 29.8919 29.9193 29.9481 29.9696 30.0242 30.0731 30.0985 30.0613 30.1203 30.1387 30.1426 30.1282 30.1672 30.2073 30.2166 30.2373 30.2573 30.3018 30.311 30.2835 30.3373 30.3794 30.3797 30.4008 30.4198 30.4352 30.5158 30.5175 30.5262 30.5362 30.5533 30.5982 30.6337 30.6422 30.6304 30.6736 30.7029 30.6887 30.7133 30.7314 30.7511 30.7606 30.7944 30.7924 30.8459 30.8634 30.9283 30.9786 30.9743 31.017 31.034 31.0645 31.0939 31.1104 31.1268 31.1522 31.1936 31.2023 31.2646 31.2741 31.3028 31.3316 31.3195 31.3707 31.3957 31.4143 31.4361 31.4425 31.4725 31.5152 31.5752 31.6136 31.6063 31.6362 31.6682 31.6717 31.7436 31.709 31.7684 31.8132 31.8521 31.8876 31.9022 31.9159 31.9718 31.9674 32.0556 32.0334 32.0597 32.1046 32.1312 32.179 32.199 32.2671 32.2312 32.2975 32.3551 32.3689 32.399 32.4171 32.4823 32.5065 32.5289 32.5257 32.5925 32.6096 32.6399 32.6661 32.7565 32.753 32.8086 32.7926 32.8704 32.8546 32.9125 32.9703 33.0202 33.0283 33.0639 33.1018 33.1368 33.1502 33.2291
28.2972 28.2936 28.2849 28.2805 28.2781 28.2626 28.256 28.2442 28.2318 28.2362 28.2172 28.2137 28.2014 28.1907 28.1802 28.1856 28.1814 28.1578 28.1525 28.1135 28.1164 28.1236 28.1187 28.1332 28.1388 28.1342 28.1223 28.0984 28.0869 28.0797 28.0764 28.0693 28.0748 28.061 28.0491 28.0534 28.0476 28.0327 28.0393 28.0245 28.022 28.0087 28.0078 28.011 27.9884 27.9887 27.994 27.9768 27.9793 27.9796 27.9802 27.9738 27.9653 27.9587 27.968 27.958 27.9694 27.9481 27.9391 27.9432 27.9295 27.94 27.9258 27.9275 27.9298 27.9273 27.9178 27.9062 27.9091 27.9088 27.9076 27.9096 27.8984 27.8888 27.8968 27.8979 27.8923 27.8962 27.8887 27.876 27.8696 27.8741 27.8727 27.8816 27.854 27.8448 27.8381 27.8494 27.8791 27.8892 27.8892 27.8565 27.8608 27.8666 27.8658 27.8787 27.8722 27.8735 27.8786 27.8782 27.8663 27.8565 27.8841 27.8737 27.8828 27.868 27.8584 27.8691 27.8577 27.8509 27.8359 27.8308 27.8275 27.8165 27.81 27.8105 27.8078 27.8063 27.8155 27.8321 27.848 27.8534 27.8611 27.8461 27.8724 27.8726 27.8475 27.8598 27.8844 27.8615 27.8628 27.8751 27.8531 27.8673 27.8696 27.8771 27.8765 27.8791 27.8742 27.8956 27.8711 27.8949 27.8698 27.8896 27.8962 27.8911 27.9054 27.8937 27.8946 27.9054 27.9057 27.9132 27.9207 27.9089 27.92 27.9275 27.9144 27.933 27.9504 27.934 27.9355 27.949 27.9357 27.9556 27.9642 27.9722 27.9652 27.9454 27.9698 27.9867 27.9833 27.9839 27.9893 28.0032 27.9915 28.0117 27.997 28.0085 28.0094 28.0102 28.0175 28.0466 28.0325 28.0265 28.0552 28.0465 28.042 28.0555 28.0613 28.0772 28.0663 28.0731 28.1097 28.0879 28.0904 28.0901 28.1233 28.1158 28.133 28.1319 28.1319 28.152 28.1646 28.1538 28.1584 28.1857 28.1666 28.1824 28.2026 28.2211 28.2187 28.2278 28.2195 28.2377 28.2529 28.2585 28.2394 28.2538 28.2743 28.2826 28.2917 28.2717 28.3092 28.3092 28.3523 28.3602 28.388 28.3439 28.3612 28.3501 28.3788 28.3888 28.404 28.4135 28.3895 28.4271 28.439 28.4468 28.4724 28.476 28.4871 28.4984 28.5205 28.5171 28.534 28.5491 28.5356 28.5647 28.5736 28.595 28.5988 28.5901 28.6245 28.6506 28.6731 28.6757 28.6742 28.7085 28.6991 28.7148 28.7327 28.7389 28.7461 28.7713 28.7843 28.7932 28.8192 28.8034 28.8302 28.8638 28.8883 28.8581 28.8773 28.8967 28.9213 28.9288 28.9413 28.9636 28.9665 28.9965 29.025 29.0291 29.0288 29.0661 29.0868 29.1128 29.0942 29.1113 29.137 29.1663 29.1864 29.1658 29.1811 29.2073 29.2259 29.2453 29.2456 29.2674 29.3087 29.2936 29.324 29.3718 29.3817 29.3885 29.4269 29.4467 29.4382 29.4376 29.4682 29.4823 29.544 29.5276 29.545 29.5745 29.5655 29.6069 29.6114 29.6312 29.6759 29.6804 29.6796 29.7019 29.7331 29.757 29.7863 29.7925 29.7935 29.8646 29.8872 29.8729 29.8852 29.9421 29.9144 30.0161 30.0077 30.0867 30.105 30.1143 30.1175 30.1126 30.1442 30.1391 30.155 30.1713 30.1978 30.2459 30.2602 30.2852 30.3221 30.3473 30.3667 30.3972 30.3765 30.3707 30.4553 30.4649 30.4551 30.4678 30.525 30.549 30.5672 30.6079 30.6221 30.6219 30.6413 30.6661 30.7043 30.7192 30.7275 30.7601 30.7698 30.8213 30.8245 30.8569 30.8629 30.9293 30.8884 30.9872 30.9689 31.02 31.0409 31.0598 31.0843 31.0993 31.1757 31.1627 31.1955 31.2264 31.2669 31.2587 31.3197 31.3425 31.3556 31.3355 31.4186 31.4194 31.4845 31.4946 31.516 31.5578 31.548 31.5782 31.6223 31.6626 31.669 31.7096 31.7676 31.7805 31.7732 31.8131 31.8817 31.9048 31.9408 31.9561 31.9924 32.0009 32.035 32.0945 32.1001 32.0742 32.1901 32.187 32.2133 32.2804 32.295 32.3044 32.3382 32.3604 32.4073 32.4737 32.4953 32.5367 32.5435 32.5278 32.5873 32.6784 32.706 32.7211 32.7524 32.7836 32.8083 32.8681 32.869 32.9328 32.9816 32.9691 33.0525 33.0678 33.0585 33.1326
28.2525 28.2414 28.2424 28.2207 28.2151 28.2229 28.2068 28.1986 28.177 28.1751 28.1733 28.1565 28.1494 28.1298 28.1442 28.1159 28.1182 28.0917 28.0599 28.0552 28.0671 28.0775 28.1062 28.0931 28.0966 28.0828 28.0588 28.0488 28.0557 28.0462 28.019 28.0164 28.0161 28.0058 27.9982 27.9944 28.0155 27.9812 27.9764 27.9737 27.971 27.9642 27.9634 27.9491 27.9472 27.946 27.946 27.9168 27.9312 27.9175 27.9367 27.9271 27.9167 27.9248 27.9028 27.9081 27.9017 27.8856 27.8866 27.8889 27.8793 27.8818 27.8977 27.8737 27.8663 27.8749 27.8627 27.8584 27.8574 27.8642 27.8712 27.8545 27.844 27.8486 27.8259 27.8393 27.8356 27.8346 27.8318 27.8383 27.824 27.8212 27.8205 27.7946 27.78 27.7971 27.8053 27.8164 27.8261 27.8228 27.8204 27.7968 27.8107 27.8107 27.8173 27.8137 27.804 27.8127 27.8206 27.8299 27.8135 27.8033 27.7997 27.8005 27.8077 27.8205 27.8191 27.827 27.8196 27.8081 27.8083 27.7996 27.803 27.7857 27.7922 27.7878 27.7694 27.7623 27.7622 27.7735 27.7664 27.797 27.8026 27.7964 27.8046 27.8186 27.8101 27.8085 27.8057 27.8177 27.8065 27.8137 27.8216 27.8168 27.8201 27.8141 27.8374 27.813 27.8362 27.8316 27.8238 27.8498 27.8373 27.838 27.8372 27.838 27.8535 27.8632 27.855 27.8506 27.8475 27.8549 27.861 27.8594 27.8747 27.8821 27.8788 27.8841 27.8857 27.8803 27.8826 27.8808 27.8848 27.8991 27.8972 27.9075 27.9096 27.9289 27.9234 27.9095 27.9256 27.9169 27.9302 27.9273 27.95 27.9408 27.9601 27.9645 27.9717 27.9462 27.9758 27.9775 27.984 27.9563 27.9852 28.0032 28.001 28.0306 28.0101 28.0193 28.0258 28.0418 28.0334 28.0337 28.0732 28.0606 28.0658 28.0528 28.0808 28.0868 28.0815 28.0818 28.0988 28.1018 28.1213 28.1369 28.1296 28.1329 28.1478 28.1552 28.136 28.1513 28.1759 28.1918 28.1781 28.1843 28.2353 28.221 28.2272 28.2384 28.2376 28.2438 28.2635 28.2621 28.2534 28.3008 28.302 28.3034 28.3203 28.3093 28.3137 28.3321 28.3432 28.3615 28.3757 28.4003 28.3844 28.3892 28.392 28.4385 28.4382 28.4345 28.4676 28.4641 28.4713 28.4837 28.4873 28.5033 28.5281 28.5372 28.5217 28.5617 28.5842 28.5766 28.6015 28.6179 28.6316 28.6438 28.6438 28.6526 28.6874 28.6967 28.721 28.7184 28.7306 28.7304 28.764 28.7716 28.7701 28.7973 28.7998 28.8148 28.8559 28.8303 28.8702 28.8534 28.9114 28.9011 28.9024 28.9394 28.9435 28.9594 28.9907 29.0069 29.0062 29.0111 29.0356 29.0481 29.0876 29.1118 29.1345 29.1511 29.1111 29.1566 29.1892 29.1855 29.1963 29.2142 29.2608 29.2633 29.2756 29.2662 29.3081 29.3501 29.3312 29.3662 29.362 29.4044 29.389 29.4398 29.435 29.4551 29.4826 29.516 29.5179 29.5198 29.5443 29.5576 29.6189 29.6375 29.6394 29.6455 29.6686 29.7171 29.715 29.7213 29.7551 29.7822 29.7771 29.8102 29.8291 29.8525 29.8963 29.9254 29.9617 29.9431 30.0194 30.0493 30.0316 30.095 30.1025 30.1015 30.1061 30.1224 30.1301 30.1825 30.1889 30.1869 30.2826 30.2395 30.3137 30.3304 30.3633 30.3577 30.3704 30.3857 30.4081 30.4392 30.4573 30.4859 30.4585 30.4886 30.5432 30.5789 30.5957 30.6463 30.6263 30.6749 30.6811 30.6978 30.6954 30.7412 30.7698 30.8182 30.8136 30.8319 30.8662 30.9078 30.9334 30.946 30.9874 30.997 31.0091 31.0493 31.091 31.1048 31.1155 31.1593 31.1838 31.1705 31.2373 31.2504 31.2998 31.3266 31.3236 31.326 31.4064 31.4335 31.4583 31.4906 31.5098 31.5413 31.564 31.602 31.6088 31.6425 31.6739 31.7203 31.7497 31.7668 31.7991 31.8246 31.8836 31.8946 31.9441 31.9443 31.9791 32.025 32.0094 32.1039 32.1149 32.1591 32.1761 32.2041 32.2387 32.2281 32.3045 32.3254 32.347 32.4263 32.4068 32.4488 32.4956 32.5125 32.5481 32.5727 32.5855 32.6531 32.7041 32.7282 32.7296 32.7966 32.796 32.8563 32.8694 32.9332 32.9599 33.0189 33.0301 33.0583
28.1965 28.1907 28.175 28.1801 28.1688 28.1516 28.1517 28.1281 28.1414 28.1189 28.1095 28.1034 28.0999 28.0865 28.0839 28.083 28.0418 28.0273 28.0173 28.0258 28.0371 28.0493 28.0533 28.0689 28.0264 28.0015 28.0067 27.9981 27.9913 27.9844 27.9698 27.9821 27.9758 27.9647 27.9532 27.9497 27.943 27.9318 27.9157 27.9307 27.9265 27.9134 27.9217 27.907 27.9008 27.8998 27.8887 27.8852 27.8766 27.8767 27.8671 27.8709 27.8733 27.8576 27.8635 27.8585 27.8486 27.8433 27.8428 27.8399 27.8329 27.825 27.8358 27.8217 27.812 27.8173 27.8091 27.822 27.8167 27.8074 27.8134 27.8034 27.8026 27.7866 27.7942 27.7847 27.7842 27.791 27.7752 27.7853 27.7713 27.7694 27.7386 27.7366 27.7455 27.7563 27.7622 27.7758 27.773 27.762 27.7624 27.7655 27.7616 27.7621 27.7686 27.7569 27.7521 27.751 27.7612 27.7574 27.7557 27.7459 27.7574 27.753 27.7757 27.7523 27.762 27.773 27.7631 27.7552 27.7627 27.7639 27.7555 27.7482 27.7574 27.741 27.7206 27.7261 27.7168 27.715 27.712 27.7184 27.7221 27.7411 27.7412 27.7547 27.7506 27.7495 27.7569 27.7711 27.7674 27.7698 27.7916 27.7749 27.7751 27.7754 27.7903 27.7591 27.8059 27.7838 27.8001 27.7933 27.8032 27.7865 27.7922 27.8075 27.8033 27.7873 27.812 27.7985 27.8016 27.8115 27.8022 27.8201 27.832 27.8241 27.8308 27.8287 27.8226 27.8253 27.8637 27.8482 27.8571 27.8331 27.8566 27.8574 27.856 27.8662 27.8507 27.87 27.8865 27.8974 27.8769 27.8853 27.8923 27.9055 27.8845 27.8955 27.9078 27.9244 27.9149 27.9175 27.9013 27.9205 27.9104 27.9136 27.938 27.9592 27.9754 27.9604 27.9835 27.9711 27.9728 27.9987 27.9975 28.0091 28.0162 28.0274 28.0182 28.0328 28.0179 28.0619 28.0623 28.0611 28.0705 28.0685 28.0648 28.1055 28.0781 28.1066 28.088 28.129 28.1179 28.1233 28.1365 28.1613 28.1351 28.1624 28.1621 28.177 28.1912 28.1956 28.2391 28.2219 28.2176 28.2316 28.2291 28.2411 28.2405 28.2694 28.2909 28.2929 28.2864 28.3011 28.2972 28.3149 28.3327 28.3551 28.3463 28.3679 28.3711 28.4043 28.4231 28.407 28.4223 28.4323 28.472 28.47 28.4788 28.4686 28.4852 28.4859 28.5197 28.5302 28.5384 28.5512 28.5594 28.5913 28.573 28.6383 28.6139 28.6438 28.6642 28.6446 28.6748 28.6928 28.703 28.7057 28.7338 28.7623 28.7524 28.7557 28.7786 28.7897 28.8179 28.822 28.8635 28.8644 28.8881 28.9045 28.9196 28.9199 28.9288 28.9394 28.9413 28.9812 29.0209 28.9986 29.0093 29.039 29.0384 29.1012 29.1035 29.1207 29.1454 29.1391 29.1491 29.1644 29.185 29.2365 29.2096 29.2571 29.2491 29.2726 29.3125 29.3258 29.3511 29.328 29.3636 29.3812 29.4214 29.4014 29.4086 29.4591 29.4692 29.5194 29.4927 29.509 29.5089 29.5174 29.5958 29.572 29.5913 29.632 29.6673 29.6608 29.6596 29.7107 29.744 29.7313 29.7908 29.8051 29.807 29.8613 29.8934 29.9113 29.9141 29.9538 29.9638 30.0221 30.0181 30.0707 30.079 30.0831 30.105 30.1035 30.1296 30.1625 30.1981 30.2223 30.2203 30.2613 30.2909 30.3078 30.314 30.3315 30.3343 30.365 30.4104 30.4215 30.436 30.424 30.4721 30.5312 30.5363 30.5461 30.5646 30.5727 30.6167 30.6224 30.6622 30.6775 30.7036 30.7125 30.7821 30.8196 30.8195 30.8539 30.8433 30.8912 30.9322 30.9534 30.9642 31.0084 31.0336 31.0519 31.0701 31.0811 31.1122 31.1538 31.1949 31.1929 31.2424 31.245 31.2919 31.3108 31.3065 31.3257 31.3832 31.3782 31.4646 31.4629 31.5132 31.5116 31.5259 31.5686 31.6041 31.6482 31.6594 31.7008 31.7562 31.7401 31.794 31.8411 31.8509 31.8938 31.9124 31.9446 31.9651 32.0107 32.0199 32.0849 32.1009 32.1428 32.1352 32.1911 32.2394 32.2207 32.2752 32.3425 32.3578 32.3971 32.4217 32.4074 32.4693 32.5239 32.517 32.6062 32.6183 32.6571 32.6638 32.7313 32.7582 32.7868 32.8018 32.8572 32.8578 32.902 32.9611 32.9553
28.141 28.1295 28.1212 28.1255 28.1112 28.104 28.0939 28.0852 28.0802 28.0717 28.0718 28.0505 28.055 28.0363 28.0361 28.0054 27.9709 27.9769 27.9817 28.0081 28.0134 28.0119 28.0101 27.9795 27.9616 27.953 27.9551 27.9428 27.9366 27.9455 27.9399 27.9172 27.9035 27.9279 27.8972 27.8915 27.8745 27.8798 27.8766 27.8778 27.8698 27.8777 27.8485 27.8509 27.8568 27.8625 27.8414 27.8492 27.8297 27.8148 27.8216 27.8216 27.8249 27.8019 27.8036 27.8157 27.7872 27.7929 27.8015 27.7856 27.7771 27.7814 27.764 27.7686 27.7751 27.77 27.7544 27.7657 27.7566 27.7598 27.7573 27.7448 27.7434 27.758 27.7441 27.7443 27.7301 27.7309 27.7343 27.7216 27.7315 27.7042 27.6801 27.6953 27.7004 27.7143 27.7423 27.7349 27.7351 27.7174 27.7152 27.7065 27.7133 27.7039 27.7156 27.7049 27.7137 27.7155 27.707 27.7056 27.7101 27.712 27.7117 27.7052 27.7055 27.6918 27.7127 27.6961 27.6933 27.711 27.7152 27.7217 27.7057 27.7134 27.7398 27.6974 27.6838 27.6904 27.6826 27.6737 27.6743 27.665 27.6645 27.6722 27.672 27.7082 27.698 27.704 27.7142 27.7097 27.7123 27.726 27.7159 27.7192 27.7292 27.7233 27.7426 27.7264 27.7378 27.7434 27.7301 27.738 27.7449 27.7404 27.7428 27.7334 27.7489 27.746 27.7431 27.7602 27.7624 27.7545 27.7633 27.772 27.7917 27.7766 27.7815 27.7795 27.7789 27.7862 27.7926 27.7906 27.7968 27.8139 27.804 27.8106 27.8161 27.8174 27.8289 27.8264 27.8077 27.8428 27.8335 27.8515 27.8418 27.8346 27.8451 27.865 27.8601 27.8586 27.8874 27.8657 27.8588 27.8646 27.8542 27.8687 27.8688 27.8872 27.8921 27.916 27.9259 27.9311 27.948 27.9407 27.9461 27.9394 27.962 27.9712 27.9637 27.9514 27.9871 28.0005 27.9975 28.0002 28.0173 28.0212 28.0241 28.0285 28.0467 28.0696 28.0467 28.0779 28.0776 28.0691 28.0855 28.0977 28.1103 28.1382 28.1236 28.145 28.1303 28.14 28.1825 28.1803 28.1513 28.1846 28.1699 28.1932 28.1922 28.2046 28.2301 28.2367 28.2456 28.2515 28.2728 28.2664 28.2852 28.2886 28.3087 28.3126 28.3448 28.3229 28.3514 28.3529 28.3754 28.3632 28.41 28.3904 28.4342 28.4267 28.4225 28.4527 28.4401 28.4772 28.4863 28.4855 28.5074 28.5435 28.5246 28.5601 28.5508 28.5746 28.5942 28.6202 28.5926 28.6281 28.6508 28.67 28.6767 28.6794 28.7023 28.7158 28.7565 28.7517 28.7527 28.7569 28.8184 28.8127 28.797 28.8166 28.8367 28.8551 28.8979 28.8798 28.9162 28.9291 28.9278 28.9532 28.9668 28.9671 29.0125 29.0022 29.021 29.0507 29.0693 29.0507 29.0749 29.1102 29.1297 29.1522 29.1652 29.1833 29.1741 29.1904 29.2146 29.2178 29.2564 29.2832 29.2919 29.3192 29.3293 29.3192 29.3578 29.3523 29.371 29.419 29.4316 29.4775 29.4542 29.5157 29.5306 29.5291 29.5371 29.5543 29.5886 29.6083 29.6139 29.6562 29.658 29.6914 29.7158 29.7441 29.7656 29.7897 29.8228 29.8424 29.8058 29.8666 29.8864 29.9213 29.9667 30.0215 30.0418 30.0437 30.0552 30.0703 30.0529 30.0782 30.1402 30.1245 30.152 30.1753 30.2015 30.185 30.2715 30.2208 30.3095 30.3185 30.3518 30.3698 30.3751 30.4152 30.4067 30.4121 30.4536 30.5146 30.5264 30.5349 30.538 30.5616 30.6183 30.6539 30.6265 30.6776 30.7041 30.6843 30.7523 30.7923 30.8069 30.7862 30.8451 30.8775 30.8649 30.9233 30.9254 30.9532 31.0103 31.0382 31.0646 31.0814 31.0648 31.147 31.1368 31.1387 31.2171 31.2086 31.2615 31.2894 31.2678 31.358 31.3853 31.3832 31.4364 31.4631 31.4724 31.4993 31.5198 31.6015 31.6157 31.6146 31.6905 31.6653 31.7263 31.7542 31.802 31.7862 31.8448 31.8708 31.9071 31.9574 31.9467 31.9868 32.0032 32.0709 32.0759 32.143 32.1456 32.2164 32.2037 32.229 32.2939 32.3018 32.3353 32.3951 32.4343 32.4663 32.4718 32.5295 32.5234 32.584 32.6231 32.6529 32.6625 32.7093 32.7211 32.7488 32.7972 32.8667 32.9111 32.9343
28.1067 28.0879 28.0763 28.0656 28.0668 28.047 28.0407 28.0362 28.0204 28.0267 28.0166 28.0009 27.9994 27.9878 27.9639 27.9405 27.9282 27.9397 27.9582 27.9674 27.9732 27.9585 27.9378 27.926 27.918 27.9035 27.8937 27.8942 27.891 27.8797 27.8723 27.8577 27.8608 27.8515 27.8464 27.8511 27.8322 27.8304 27.8329 27.8196 27.8086 27.8092 27.8045 27.8034 27.8089 27.7975 27.7847 27.7987 27.7825 27.7733 27.7662 27.7529 27.7525 27.7488 27.7423 27.745 27.7419 27.7376 27.7425 27.7386 27.7258 27.7241 27.7207 27.7151 27.7182 27.7046 27.7039 27.6981 27.71 27.7021 27.7048 27.6998 27.7036 27.7015 27.6839 27.6884 27.678 27.6798 27.674 27.6859 27.6514 27.6414 27.6424 27.6555 27.6739 27.6785 27.6891 27.6809 27.6646 27.6523 27.6685 27.6665 27.6658 27.6574 27.6606 27.6611 27.6533 27.6525 27.6593 27.6505 27.6426 27.6661 27.6545 27.6611 27.6678 27.6524 27.6478 27.6741 27.6326 27.6511 27.6488 27.6697 27.6696 27.673 27.661 27.6505 27.6591 27.6498 27.6472 27.6306 27.6328 27.6292 27.6238 27.6182 27.612 27.6112 27.6502 27.6607 27.6676 27.6644 27.6658 27.6603 27.6679 27.6678 27.679 27.6664 27.6781 27.6825 27.6833 27.694 27.6852 27.6814 27.7002 27.712 27.7113 27.6869 27.694 27.701 27.7044 27.6936 27.7076 27.7148 27.7058 27.7389 27.7238 27.7193 27.7233 27.7228 27.7285 27.7366 27.7327 27.7388 27.7426 27.7439 27.7691 27.7562 27.7583 27.7619 27.7744 27.7784 27.7693 27.7797 27.7794 27.7781 27.7766 27.7959 27.8045 27.8009 27.8111 27.8249 27.8204 27.8402 27.8401 27.8426 27.8343 27.8246 27.8297 27.8218 27.8261 27.8434 27.8554 27.8778 27.8867 27.8954 27.8883 27.8994 27.9181 27.9106 27.9342 27.9112 27.9371 27.9342 27.9472 27.9536 27.9646 27.9752 27.9768 27.9882 27.9826 28.0092 27.9977 28.0202 28.0278 28.019 28.0518 28.0404 28.0354 28.0757 28.068 28.0598 28.0775 28.0844 28.1007 28.1314 28.1191 28.1112 28.1351 28.156 28.1508 28.1411 28.1457 28.1737 28.1895 28.1857 28.1974 28.2284 28.2359 28.2561 28.2355 28.2265 28.2724 28.2723 28.3288 28.2908 28.2921 28.3247 28.3442 28.3486 28.3643 28.3816 28.3965 28.4033 28.3832 28.4258 28.4213 28.4331 28.4684 28.4865 28.4862 28.5021 28.4882 28.5013 28.5288 28.5355 28.535 28.5495 28.5814 28.6234 28.6216 28.6337 28.6345 28.6899 28.6822 28.7062 28.6748 28.6902 28.7271 28.7624 28.7596 28.765 28.7858 28.8263 28.8171 28.8194 28.8578 28.8663 28.888 28.8569 28.9085 28.9131 28.9382 28.9652 28.9753 28.9418 28.992 29.0278 29.0081 29.0379 29.0758 29.0878 29.1011 29.1079 29.1375 29.2006 29.1672 29.1707 29.2041 29.2202 29.2537 29.2606 29.2626 29.2528 29.2868 29.3061 29.356 29.3617 29.3863 29.3756 29.4253 29.4424 29.469 29.5255 29.5022 29.4904 29.5204 29.5484 29.5759 29.638 29.6297 29.6352 29.6675 29.669 29.682 29.7073 29.7243 29.7486 29.7818 29.803 29.8209 29.8493 29.8577 29.8525 29.9383 29.9331 30.0237 29.9886 30.0532 30.0676 30.0766 30.0769 30.0896 30.1167 30.1542 30.1275 30.1602 30.2091 30.2629 30.2914 30.2621 30.2765 30.3135 30.3513 30.3665 30.3955 30.3864 30.413 30.4572 30.4982 30.5272 30.5387 30.5509 30.55 30.5595 30.6204 30.6504 30.6514 30.699 30.7254 30.7131 30.7567 30.747 30.7978 30.8675 30.8771 30.8656 30.8932 30.9526 30.9762 30.966 31.0066 31.0133 31.0451 31.0989 31.1327 31.1673 31.1958 31.2111 31.2426 31.2698 31.2743 31.3279 31.3742 31.3646 31.4017 31.4202 31.457 31.5009 31.5233 31.5444 31.5457 31.5885 31.6259 31.6917 31.6815 31.7406 31.7 31.788 31.7683 31.8511 31.8388 31.9044 31.9142 31.9589 31.9869 32.026 32.0344 32.0965 32.1241 32.1451 32.1498 32.1871 32.2411 32.2881 32.3142 32.3497 32.3706 32.4092 32.4242 32.4845 32.4701 32.5813 32.587 32.6088 32.6378 32.6847 32.6951 32.733 32.7741 32.8067 32.8706
28.0401 28.0426 28.0242 28.0177 28.0171 27.9994 27.9908 27.9892 27.9724 27.9674 27.9591 27.9457 27.9375 27.9 27.892 27.8866 27.8937 27.9156 27.9157 27.9258 27.909 27.8889 27.8847 27.8676 27.8612 27.8551 27.857 27.8366 27.8334 27.8285 27.8194 27.8227 27.8192 27.8033 27.799 27.7946 27.8006 27.7736 27.7728 27.7661 27.7631 27.7539 27.768 27.7566 27.7596 27.7502 27.7409 27.7265 27.7241 27.729 27.7194 27.7107 27.6999 27.7093 27.7108 27.6926 27.7004 27.6933 27.6887 27.6896 27.6712 27.6753 27.6818 27.6666 27.6787 27.6674 27.6583 27.6447 27.6524 27.6533 27.6604 27.6341 27.6465 27.6334 27.6375 27.6423 27.6318 27.6257 27.6304 27.5963 27.5947 27.6005 27.6106 27.6358 27.6414 27.6522 27.6242 27.6038 27.6171 27.6108 27.615 27.6126 27.6015 27.611 27.6089 27.604 27.6104 27.6047 27.6016 27.6051 27.6117 27.602 27.6151 27.609 27.6213 27.5996 27.5876 27.6096 27.5934 27.6128 27.6103 27.6076 27.6138 27.5951 27.6094 27.6202 27.6325 27.6143 27.6119 27.6094 27.594 27.5849 27.5954 27.5775 27.5816 27.5691 27.573 27.5813 27.5876 27.6107 27.6344 27.6191 27.6195 27.6165 27.6361 27.6348 27.6287 27.6285 27.6295 27.6562 27.6481 27.6434 27.6316 27.6313 27.6457 27.6574 27.6551 27.6675 27.6521 27.6621 27.6544 27.6662 27.6834 27.6656 27.659 27.6699 27.6694 27.6784 27.6842 27.6951 27.7056 27.6908 27.6961 27.7046 27.7204 27.7 27.7055 27.7137 27.7105 27.7282 27.7305 27.7385 27.7465 27.7162 27.7599 27.7332 27.7563 27.7794 27.7422 27.7576 27.7716 27.8106 27.8046 27.8044 27.8078 27.7951 27.7944 27.7923 27.7842 27.7845 27.8199 27.8157 27.8161 27.8351 27.8388 27.8541 27.8575 27.8512 27.8824 27.8777 27.9008 27.8991 27.9058 27.9032 27.9078 27.9105 27.939 27.928 27.9517 27.947 27.9478 27.9754 27.9691 27.9805 27.9867 27.9951 28.007 28.0045 28.0342 28.0203 28.0323 28.0506 28.0318 28.0552 28.0473 28.0495 28.0826 28.0941 28.0979 28.1084 28.0884 28.1206 28.1425 28.1659 28.1711 28.1718 28.1711 28.1788 28.1716 28.2202 28.2114 28.2415 28.2302 28.2773 28.2684 28.2677 28.297 28.313 28.3182 28.3319 28.3453 28.3456 28.3717 28.3613 28.35 28.4062 28.4001 28.4123 28.4108 28.423 28.4599 28.4659 28.4637 28.4582 28.5255 28.5213 28.524 28.5465 28.5805 28.5749 28.5771 28.5906 28.6169 28.6119 28.6361 28.6599 28.6611 28.6912 28.7244 28.7107 28.7143 28.7532 28.7604 28.7782 28.8023 28.7867 28.8246 28.8332 28.8656 28.8498 28.8515 28.9092 28.9338 28.9562 28.9376 28.9796 28.9925 29.0088 29.0165 29.0184 29.0328 29.0585 29.0555 29.0774 29.1062 29.1241 29.1757 29.1393 29.2111 29.2026 29.207 29.215 29.2313 29.2889 29.2412 29.3051 29.2726 29.3424 29.3485 29.3627 29.4052 29.4216 29.4532 29.4851 29.4784 29.4582 29.4991 29.518 29.5723 29.5845 29.5858 29.5951 29.6107 29.6732 29.6871 29.6683 29.7264 29.7394 29.799 29.7727 29.832 29.838 29.8566 29.9165 29.9086 29.9033 29.9503 30.0043 30.0445 30.0438 30.0651 30.0865 30.1073 30.101 30.1176 30.152 30.1153 30.1696 30.209 30.2711 30.2684 30.2858 30.3267 30.3504 30.3687 30.3936 30.346 30.4144 30.4303 30.464 30.5221 30.4975 30.544 30.5587 30.5887 30.6018 30.6112 30.6456 30.6637 30.6944 30.7128 30.7513 30.8023 30.8143 30.7975 30.8829 30.8363 30.9053 30.9405 30.9611 30.9721 31.0117 31.047 31.0609 31.0995 31.1219 31.1249 31.1656 31.1814 31.221 31.2746 31.2927 31.3253 31.3442 31.3654 31.3856 31.4071 31.4017 31.4435 31.5251 31.5262 31.5739 31.5526 31.6193 31.6551 31.7026 31.708 31.7392 31.7699 31.8457 31.8449 31.8847 31.8965 31.9452 31.9576 31.9857 32.0241 32.0452 32.0493 32.1351 32.1371 32.1787 32.2096 32.2544 32.2897 32.2884 32.3493 32.3336 32.4304 32.4605 32.4549 32.4931 32.5141 32.5569 32.5923 32.6175 32.6866 32.7142 32.7535 32.7626
27.9971 27.9806 27.9788 27.9682 27.9498 27.9367 27.9522 27.9334 27.9144 27.9135 27.9081 27.8985 27.8608 27.8532 27.8504 27.8605 27.8704 27.8829 27.8857 27.8724 27.8432 27.8342 27.8253 27.813 27.8111 27.7916 27.7902 27.7946 27.7848 27.7773 27.7678 27.7784 27.7558 27.7558 27.7501 27.745 27.737 27.7243 27.7278 27.7179 27.706 27.7076 27.7063 27.7084 27.6895 27.6886 27.6843 27.6719 27.6723 27.6706 27.6773 27.668 27.6558 27.6557 27.6496 27.6433 27.6404 27.6373 27.6389 27.6287 27.6276 27.6275 27.6146 27.6186 27.6256 27.6053 27.6121 27.6046 27.6003 27.5943 27.6015 27.5811 27.5897 27.5907 27.5808 27.5782 27.5873 27.5737 27.552 27.5458 27.5644 27.5744 27.5676 27.5907 27.5963 27.5728 27.5647 27.5543 27.5717 27.5626 27.5635 27.573 27.5577 27.5517 27.5554 27.5605 27.559 27.5679 27.5531 27.5677 27.5649 27.5484 27.5615 27.5691 27.5527 27.5585 27.5403 27.5342 27.551 27.5566 27.5738 27.5688 27.5465 27.541 27.5478 27.5689 27.5748 27.5843 27.5749 27.5699 27.5625 27.5517 27.5481 27.5462 27.5394 27.5337 27.5295 27.5236 27.5259 27.5595 27.5585 27.5756 27.5717 27.5954 27.5686 27.5758 27.5674 27.5769 27.6039 27.5851 27.5973 27.5914 27.5921 27.5954 27.6026 27.612 27.6195 27.5936 27.613 27.6047 27.6131 27.6077 27.6229 27.6304 27.6141 27.6298 27.6289 27.6371 27.6343 27.6366 27.6488 27.6341 27.6757 27.6921 27.6598 27.6597 27.6595 27.6774 27.6631 27.6886 27.6728 27.6894 27.6884 27.6765 27.6931 27.698 27.7031 27.7021 27.7146 27.7332 27.7344 27.7582 27.7628 27.7921 27.778 27.7784 27.7725 27.7609 27.7476 27.7454 27.7342 27.7316 27.7579 27.7544 27.7991 27.8004 27.8025 27.8256 27.8324 27.8325 27.8287 27.8732 27.8783 27.8516 27.8606 27.8668 27.8708 27.9045 27.8822 27.8919 27.9066 27.9259 27.9197 27.9288 27.9195 27.9423 27.9641 27.9428 27.9822 27.9713 27.9729 28.0018 27.99 28.0262 28.0047 28.0329 28.0239 28.0575 28.0594 28.0623 28.0788 28.0971 28.1014 28.0836 28.1181 28.1131 28.1164 28.1469 28.1568 28.1582 28.1778 28.1906 28.1946 28.1862 28.2031 28.223 28.2709 28.1996 28.2465 28.26 28.2799 28.3227 28.3137 28.3126 28.3522 28.3257 28.3789 28.3446 28.3954 28.3917 28.3993 28.4021 28.4448 28.4241 28.4547 28.4538 28.4507 28.5017 28.519 28.501 28.5148 28.5451 28.5652 28.5555 28.584 28.6117 28.6364 28.6213 28.629 28.6802 28.6741 28.6807 28.7056 28.7244 28.7425 28.7398 28.7781 28.7918 28.8171 28.8069 28.8236 28.8168 28.8526 28.8871 28.9005 28.8861 28.9254 28.9236 28.9598 28.9456 29.0007 29.0004 29.0165 29.0169 29.0598 29.0663 29.0718 29.109 29.1372 29.1421 29.1561 29.1801 29.198 29.179 29.2265 29.2738 29.2859 29.2802 29.2828 29.3247 29.3617 29.3451 29.3702 29.3524 29.4107 29.4389 29.4752 29.465 29.5015 29.5116 29.5245 29.5471 29.5741 29.5838 29.5905 29.6856 29.6597 29.6767 29.7015 29.7339 29.7352 29.7472 29.8092 29.8115 29.8214 29.8479 29.8302 29.9207 29.9448 29.9602 30.0212 30.0267 30.0386 30.0706 30.0613 30.0763 30.064 30.1312 30.1539 30.1728 30.2245 30.2476 30.2515 30.2561 30.3145 30.3173 30.3268 30.3486 30.3954 30.3989 30.4474 30.4566 30.453 30.4616 30.5205 30.5454 30.5731 30.5958 30.6373 30.6199 30.6518 30.7055 30.7342 30.7415 30.7506 30.7792 30.8157 30.8701 30.8832 30.9102 30.884 30.9201 30.9795 31.005 31.0249 31.0629 31.0742 31.0946 31.1478 31.1714 31.1846 31.168 31.2507 31.2423 31.3093 31.2831 31.332 31.3954 31.4191 31.3869 31.4188 31.48 31.5191 31.5548 31.5927 31.6092 31.6443 31.6617 31.7093 31.7644 31.7598 31.8193 31.8398 31.8421 31.886 31.9267 31.9693 31.962 32.0286 32.0443 32.0367 32.0792 32.1511 32.1909 32.2292 32.2413 32.2912 32.2972 32.3049 32.337 32.4038 32.4486 32.4717 32.5148 32.5221 32.5549 32.6253 32.6022 32.6856 32.7054
27.9417 27.9295 27.9116 27.9262 27.8986 27.8974 27.8869 27.8989 27.8712 27.8656 27.8365 27.8285 27.805 27.8165 27.8326 27.8355 27.8444 27.8538 27.8326 27.8016 27.7892 27.7925 27.7788 27.7704 27.7476 27.7437 27.7498 27.7336 27.7353 27.7339 27.7252 27.7211 27.7223 27.7015 27.6928 27.6925 27.6813 27.6888 27.6734 27.6729 27.6774 27.6604 27.6528 27.6454 27.6442 27.6376 27.6278 27.6314 27.6181 27.6217 27.6111 27.6133 27.6179 27.6142 27.6094 27.593 27.6067 27.6027 27.5848 27.5734 27.5834 27.5727 27.5695 27.5653 27.5766 27.5568 27.5552 27.5602 27.5596 27.5512 27.5476 27.5448 27.5438 27.5358 27.5348 27.5336 27.5244 27.4937 27.4987 27.5028 27.5239 27.528 27.5494 27.5548 27.5191 27.5097 27.5189 27.5126 27.5065 27.51 27.4986 27.5047 27.5116 27.5272 27.5072 27.519 27.5179 27.5065 27.5046 27.4932 27.5021 27.5171 27.5156 27.502 27.5044 27.5002 27.5104 27.5175 27.5269 27.524 27.5251 27.4934 27.4865 27.5069 27.5043 27.507 27.5216 27.5193 27.5248 27.5373 27.5357 27.5331 27.5202 27.5132 27.5109 27.5051 27.4938 27.4859 27.4841 27.4887 27.4898 27.4994 27.5186 27.5292 27.528 27.5279 27.5252 27.5171 27.5479 27.551 27.5368 27.5346 27.5489 27.5602 27.5575 27.5439 27.5584 27.5544 27.5612 27.5818 27.5633 27.5699 27.5644 27.5618 27.5866 27.5889 27.6056 27.5921 27.5885 27.5802 27.6015 27.5962 27.5979 27.61 27.6134 27.6353 27.6127 27.6147 27.6232 27.629 27.6294 27.636 27.6309 27.6526 27.6388 27.6423 27.6594 27.653 27.654 27.6541 27.6822 27.687 27.6865 27.7306 27.7297 27.7302 27.7414 27.7353 27.7326 27.7257 27.7144 27.7185 27.7109 27.7067 27.73 27.717 27.7357 27.7492 27.7785 27.7808 27.7706 27.7876 27.817 27.8135 27.8119 27.8118 27.843 27.8437 27.8255 27.8406 27.8545 27.8798 27.8634 27.8674 27.8776 27.886 27.8898 27.9173 27.8947 27.9275 27.9199 27.9369 27.9482 27.9508 27.9715 27.9791 27.9912 28.0235 28.0075 28.0097 28.0312 28.0478 28.0344 28.0456 28.0409 28.0685 28.0618 28.0743 28.0951 28.0932 28.1065 28.1602 28.1288 28.1362 28.1495 28.1562 28.1772 28.1985 28.1887 28.226 28.2196 28.2462 28.2489 28.2656 28.2754 28.2917 28.3016 28.3056 28.3311 28.3236 28.3413 28.3522 28.3624 28.396 28.4092 28.4237 28.4072 28.4375 28.431 28.4792 28.4921 28.4772 28.4627 28.545 28.5493 28.5721 28.5587 28.5801 28.5815 28.5892 28.6131 28.6411 28.6399 28.6672 28.6863 28.6704 28.7029 28.7181 28.7305 28.7744 28.7848 28.7768 28.7965 28.8158 28.8671 28.8615 28.8548 28.8481 28.9373 28.9083 28.9523 28.9069 28.9551 28.9903 29.0001 29.0054 29.0443 29.0274 29.0936 29.0802 29.1232 29.0914 29.1575 29.1631 29.177 29.1856 29.2076 29.2333 29.222 29.2569 29.2642 29.3145 29.3164 29.3381 29.3436 29.3842 29.3804 29.4124 29.4344 29.4367 29.4842 29.4657 29.5012 29.5361 29.5569 29.6096 29.5885 29.6312 29.6295 29.6468 29.7094 29.6899 29.7044 29.7414 29.768 29.8022 29.7771 29.8549 29.8648 29.8241 29.9534 29.9919 29.9602 30.0185 30.0288 30.0468 30.0712 30.0909 30.0979 30.0915 30.1265 30.1744 30.1914 30.2161 30.2174 30.2566 30.2974 30.2951 30.331 30.3432 30.3671 30.4049 30.3866 30.4573 30.472 30.4737 30.5272 30.5553 30.5655 30.5384 30.5946 30.6114 30.6596 30.6604 30.7023 30.7383 30.7497 30.7866 30.7782 30.8446 30.8269 30.9042 30.9153 30.944 30.9691 30.9944 31.0475 31.0215 31.0665 31.0889 31.1303 31.1243 31.1814 31.2085 31.2594 31.2382 31.2743 31.3436 31.2947 31.3651 31.4233 31.4062 31.4581 31.4812 31.4998 31.5222 31.5918 31.6002 31.6324 31.6606 31.6984 31.738 31.7761 31.7821 31.8064 31.8676 31.908 31.937 31.9559 31.9805 31.993 32.0165 32.089 32.0928 32.1157 32.1816 32.2265 32.2155 32.2341 32.3134 32.328 32.3529 32.3965 32.4502 32.4655 32.5144 32.5638 32.5605 32.5885 32.6264
27.8868 27.8746 27.8815 27.8601 27.8535 27.8497 27.832 27.8307 27.8267 27.7791 27.7609 27.7695 27.7695 27.7879 27.7978 27.8094 27.7997 27.792 27.7639 27.7483 27.7447 27.7295 27.717 27.7145 27.7081 27.6927 27.6855 27.692 27.688 27.6762 27.6687 27.6713 27.6644 27.6563 27.6408 27.6483 27.6558 27.6334 27.6273 27.619 27.6219 27.6055 27.6166 27.6043 27.5938 27.5868 27.5939 27.589 27.5775 27.5946 27.5707 27.572 27.5532 27.5524 27.5412 27.5496 27.5452 27.5523 27.5347 27.5249 27.5337 27.5236 27.5321 27.5118 27.5189 27.5146 27.5125 27.5062 27.5026 27.5043 27.5103 27.5004 27.4938 27.4863 27.4846 27.4932 27.4615 27.4446 27.4585 27.467 27.4926 27.4886 27.4888 27.4979 27.4699 27.4731 27.4666 27.4704 27.4711 27.4584 27.4718 27.4675 27.4664 27.4797 27.4704 27.4691 27.4514 27.4667 27.4543 27.4667 27.4517 27.4587 27.4598 27.4573 27.4653 27.4613 27.4637 27.4516 27.4739 27.4685 27.4637 27.4354 27.4613 27.4586 27.4606 27.4748 27.4744 27.4407 27.4801 27.4796 27.4915 27.4874 27.4856 27.4844 27.4803 27.4751 27.4666 27.445 27.4514 27.4413 27.444 27.4371 27.436 27.4621 27.4758 27.4664 27.4743 27.4847 27.4941 27.4846 27.491 27.5035 27.495 27.5033 27.4891 27.5181 27.528 27.493 27.5242 27.5028 27.5136 27.5215 27.5268 27.5384 27.5355 27.5289 27.5211 27.5416 27.5186 27.5459 27.5569 27.5669 27.5597 27.5666 27.5608 27.5748 27.5845 27.5766 27.5819 27.5831 27.5933 27.5987 27.5847 27.5833 27.5975 27.5937 27.5937 27.6094 27.6202 27.6356 27.6389 27.6321 27.6311 27.6359 27.6416 27.6749 27.698 27.6901 27.707 27.7002 27.692 27.6807 27.6857 27.6737 27.6695 27.6838 27.6895 27.7076 27.6948 27.7163 27.7331 27.743 27.747 27.765 27.7827 27.7759 27.7801 27.7799 27.7956 27.7971 27.8128 27.8004 27.807 27.8477 27.8228 27.8585 27.8465 27.8529 27.8581 27.8778 27.8874 27.8915 27.8893 27.9026 27.9121 27.9179 27.9286 27.952 27.9542 27.9311 27.9667 27.9665 27.984 27.9812 28.0215 28.0391 28.0057 28.0405 28.0454 28.0435 28.0734 28.1001 28.0995 28.1093 28.0933 28.1178 28.1338 28.1477 28.1462 28.1725 28.1843 28.1728 28.2013 28.2109 28.2149 28.2255 28.2329 28.2821 28.2684 28.2818 28.3052 28.3134 28.3284 28.3336 28.3469 28.3523 28.3927 28.3747 28.381 28.4324 28.4408 28.4578 28.4337 28.4741 28.4894 28.5005 28.5067 28.5276 28.5166 28.5509 28.5545 28.5691 28.6106 28.5873 28.6343 28.6101 28.6348 28.6743 28.6707 28.6947 28.717 28.7419 28.7526 28.7524 28.747 28.7696 28.8188 28.8198 28.8541 28.8533 28.8805 28.9087 28.9214 28.9239 28.9241 28.9548 28.9927 29.0076 28.9984 29.0194 29.0522 29.0676 29.084 29.1089 29.1126 29.1244 29.1569 29.1695 29.1982 29.1863 29.2116 29.2423 29.2278 29.2741 29.2959 29.3152 29.3014 29.375 29.3533 29.3856 29.441 29.445 29.431 29.4621 29.4931 29.5049 29.5232 29.5614 29.604 29.6073 29.6142 29.6377 29.6183 29.7041 29.7071 29.702 29.7135 29.7923 29.7452 29.8003 29.8352 29.8412 29.9578 29.9656 29.9992 29.989 30.0077 30.0312 30.0454 30.0631 30.0645 30.0921 30.1542 30.1806 30.1868 30.2075 30.1985 30.2154 30.2116 30.2535 30.3106 30.3153 30.3587 30.359 30.4197 30.4052 30.4464 30.4416 30.4649 30.5017 30.5386 30.6005 30.602 30.6275 30.6319 30.6939 30.702 30.6794 30.7532 30.769 30.8324 30.8338 30.8666 30.8768 30.9064 30.9314 30.9358 31.0044 30.9984 30.9947 31.0554 31.0929 31.1348 31.1252 31.1497 31.1513 31.2276 31.2442 31.2868 31.2538 31.2966 31.3403 31.3677 31.4083 31.4654 31.4526 31.4845 31.5631 31.5522 31.5979 31.6386 31.6341 31.6957 31.7233 31.7517 31.7842 31.8226 31.8474 31.8873 31.8783 31.9549 31.9917 32.0088 32.0355 32.0801 32.0903 32.1245 32.1885 32.1939 32.2278 32.2289 32.2753 32.3386 32.3639 32.3783 32.4283 32.4635 32.5123 32.547 32.5591
27.8356 27.8385 27.8243 27.8024 27.8092 27.7987 27.7865 27.7697 27.7569 27.7192 27.7166 27.7243 27.7445 27.7505 27.763 27.7514 27.7306 27.7172 27.7119 27.7074 27.6864 27.6811 27.6704 27.6649 27.6544 27.6433 27.6372 27.6379 27.6321 27.6165 27.6195 27.6169 27.6068 27.6006 27.59 27.5981 27.5963 27.584 27.588 27.5787 27.5735 27.5592 27.5647 27.5542 27.548 27.5447 27.5412 27.5343 27.5321 27.5243 27.5192 27.5106 27.5109 27.5084 27.5026 27.4917 27.4943 27.5018 27.4946 27.481 27.4821 27.4651 27.4724 27.4667 27.4697 27.4703 27.466 27.4557 27.4605 27.4606 27.4552 27.4615 27.4493 27.453 27.4412 27.4056 27.4153 27.4064 27.423 27.4404 27.4479 27.4514 27.4274 27.4202 27.4221 27.4248 27.4131 27.4121 27.4161 27.4114 27.4238 27.4224 27.4118 27.4019 27.4148 27.4076 27.4037 27.4094 27.4217 27.4177 27.4107 27.4268 27.417 27.4138 27.4023 27.4013 27.4196 27.4247 27.4153 27.4046 27.4187 27.4035 27.4489 27.4145 27.4167 27.4266 27.4022 27.42 27.4296 27.4424 27.4389 27.4413 27.4467 27.4487 27.4434 27.4339 27.4399 27.4242 27.4177 27.4123 27.402 27.4125 27.4105 27.4221 27.4018 27.4015 27.4016 27.4282 27.4275 27.4306 27.4457 27.4396 27.4326 27.4498 27.4425 27.4603 27.4602 27.4716 27.4576 27.4713 27.4799 27.4692 27.4773 27.4905 27.4971 27.482 27.4953 27.4823 27.4918 27.4915 27.5003 27.5127 27.4989 27.5069 27.5325 27.5213 27.5274 27.5187 27.536 27.5337 27.5371 27.5518 27.5538 27.5419 27.5491 27.5715 27.5691 27.5589 27.5672 27.5691 27.5738 27.5692 27.5846 27.6 27.58 27.6149 27.6235 27.6345 27.6495 27.6566 27.6645 27.6621 27.6609 27.6609 27.642 27.6381 27.6325 27.6361 27.641 27.6598 27.6928 27.6911 27.7019 27.6998 27.7101 27.7196 27.7314 27.7241 27.7394 27.7528 27.7627 27.7657 27.7574 27.7773 27.7805 27.8093 27.8074 27.8001 27.8041 27.8198 27.837 27.8532 27.844 27.8722 27.8631 27.8786 27.8854 27.8988 27.9134 27.9065 27.9308 27.9467 27.9289 27.9596 27.9703 27.9493 27.9615 27.9975 28.0035 27.9995 28.0225 28.0148 28.0246 28.027 28.0362 28.0627 28.0792 28.0904 28.0973 28.1162 28.1094 28.1469 28.1328 28.1694 28.1405 28.1832 28.2157 28.1931 28.217 28.2377 28.2591 28.2513 28.2593 28.2887 28.2952 28.2943 28.3206 28.3479 28.3501 28.3421 28.3662 28.3651 28.4049 28.4101 28.4417 28.4576 28.446 28.4502 28.4727 28.511 28.5168 28.5342 28.5149 28.556 28.5751 28.6174 28.6 28.6043 28.6615 28.6746 28.6658 28.691 28.7135 28.7089 28.7229 28.7324 28.7389 28.7659 28.7834 28.8004 28.8166 28.8572 28.8399 28.8583 28.8782 28.9214 28.9111 28.9121 28.9538 28.9874 28.9801 28.9935 29.0093 29.073 29.0628 29.081 29.1034 29.0825 29.1219 29.1516 29.1365 29.2019 29.1927 29.2463 29.2393 29.262 29.2909 29.2799 29.335 29.3463 29.3126 29.373 29.4246 29.3788 29.4374 29.4855 29.495 29.4832 29.4928 29.5529 29.535 29.5689 29.6048 29.6101 29.6428 29.6611 29.6964 29.7151 29.7412 29.7028 29.7738 29.7796 29.8231 29.8474 29.8768 29.9498 29.9552 29.9895 30.0128 30.0306 30.0335 30.0391 30.0501 30.0596 30.0647 30.105 30.1599 30.1931 30.2269 30.2007 30.2584 30.2766 30.2734 30.2701 30.3108 30.3486 30.3785 30.4167 30.4167 30.4593 30.4819 30.5131 30.5354 30.569 30.5916 30.5941 30.6048 30.684 30.7088 30.7072 30.7708 30.7753 30.8047 30.8559 30.8484 30.8353 30.8991 30.9324 30.9095 30.9772 30.9518 30.9854 31.0497 31.1095 31.1145 31.1451 31.1573 31.1881 31.1801 31.2463 31.2902 31.3264 31.3361 31.3442 31.3952 31.4134 31.4639 31.4971 31.4965 31.5151 31.5685 31.577 31.5952 31.672 31.6821 31.7198 31.7269 31.7588 31.8351 31.8417 31.88 31.8975 31.9074 31.9782 32.0345 32.0333 32.0849 32.1126 32.1246 32.174 32.1716 32.2325 32.2692 32.2815 32.3311 32.3674 32.4033 32.4161 32.4679 32.4781
27.7885 27.7681 27.7704 27.751 27.7452 27.7456 27.7311 27.7078 27.6719 27.6782 27.6823 27.7079 27.7103 27.7136 27.7064 27.6774 27.6687 27.6597 27.6537 27.6466 27.6536 27.6219 27.6107 27.614 27.6005 27.6141 27.5951 27.5904 27.5822 27.5768 27.571 27.5642 27.5557 27.5525 27.5545 27.5424 27.5441 27.527 27.5411 27.5264 27.5229 27.5097 27.5064 27.4994 27.5006 27.4842 27.4818 27.4749 27.4788 27.4673 27.4779 27.4764 27.4608 27.4715 27.4439 27.4398 27.4415 27.4474 27.4323 27.4417 27.4331 27.4221 27.4161 27.429 27.4278 27.4197 27.4168 27.4146 27.4133 27.4161 27.4016 27.4154 27.399 27.3866 27.357 27.3639 27.3747 27.3808 27.3917 27.4004 27.4056 27.3878 27.3672 27.3731 27.3693 27.3823 27.3673 27.3696 27.3671 27.3776 27.3851 27.365 27.3713 27.3563 27.3691 27.3702 27.3633 27.3628 27.3555 27.3658 27.3641 27.3696 27.3675 27.3735 27.3611 27.3694 27.3628 27.3509 27.3589 27.3535 27.3619 27.3705 27.3675 27.377 27.382 27.3461 27.3443 27.3776 27.3855 27.3609 27.3728 27.3828 27.3882 27.3955 27.3938 27.4003 27.3886 27.3916 27.3853 27.3759 27.3744 27.3724 27.3887 27.3765 27.366 27.3548 27.3425 27.3501 27.3646 27.3816 27.3975 27.4016 27.3892 27.406 27.419 27.4121 27.4229 27.4235 27.4101 27.4291 27.4147 27.4292 27.424 27.4383 27.4438 27.4356 27.433 27.4494 27.4459 27.4302 27.451 27.4493 27.4544 27.4666 27.4599 27.4701 27.4968 27.4642 27.4775 27.4893 27.5159 27.4826 27.4978 27.5241 27.4903 27.5248 27.515 27.5131 27.5311 27.5372 27.5296 27.5597 27.531 27.5637 27.5487 27.5576 27.5533 27.5504 27.5803 27.5871 27.6143 27.6157 27.6304 27.6221 27.6212 27.6214 27.6141 27.6085 27.5985 27.6032 27.6069 27.6231 27.6374 27.643 27.6549 27.7017 27.6984 27.7264 27.6909 27.691 27.7139 27.708 27.7227 27.7221 27.7452 27.7455 27.7562 27.7662 27.7552 27.7733 27.7905 27.8063 27.7995 27.807 27.8312 27.826 27.8377 27.8394 27.8444 27.8911 27.8658 27.8994 27.8728 27.8829 27.9006 27.9133 27.9212 27.9476 27.9565 27.9552 27.9577 27.9733 27.9983 27.9967 27.9916 28.0266 28.0085 28.0329 28.0792 28.0543 28.0736 28.0754 28.0911 28.0926 28.1021 28.1363 28.1404 28.1585 28.1628 28.167 28.1749 28.2172 28.2029 28.2296 28.2345 28.269 28.2768 28.3089 28.2905 28.2964 28.3101 28.3404 28.3398 28.3439 28.3433 28.4137 28.3931 28.4433 28.4341 28.446 28.4429 28.4872 28.4789 28.4862 28.4824 28.5375 28.5278 28.5475 28.5671 28.6063 28.604 28.625 28.6363 28.6765 28.6708 28.6516 28.6962 28.7156 28.7034 28.7144 28.7414 28.7803 28.7874 28.8007 28.8601 28.8218 28.8184 28.8523 28.8993 28.9111 28.8965 28.9323 28.9895 28.9675 29.004 29.047 29.0547 29.0351 29.0473 29.0996 29.1061 29.1201 29.1641 29.1668 29.1884 29.1831 29.1973 29.2321 29.2752 29.2844 29.3202 29.3058 29.325 29.3749 29.3789 29.4312 29.4231 29.4338 29.452 29.4733 29.4954 29.5266 29.5518 29.5523 29.5674 29.6028 29.608 29.6707 29.6432 29.687 29.7065 29.7107 29.7405 29.7995 29.7978 29.8314 29.8055 29.9001 29.9601 29.9572 29.9674 30.0173 30.0132 30.0434 30.0232 30.0492 30.093 30.1053 30.0853 30.1563 30.186 30.1874 30.2104 30.2582 30.2498 30.2782 30.2872 30.3693 30.359 30.4174 30.414 30.4729 30.455 30.494 30.5258 30.562 30.5953 30.6121 30.6131 30.6772 30.6779 30.7253 30.7091 30.7369 30.7872 30.8074 30.8454 30.8603 30.8956 30.8759 30.9521 30.9665 30.9802 31.0332 31.011 31.0891 31.1077 31.123 31.1706 31.1918 31.2072 31.2568 31.2921 31.2833 31.3396 31.3518 31.3774 31.3798 31.4519 31.4686 31.5173 31.525 31.5393 31.5913 31.615 31.6649 31.7003 31.7361 31.7295 31.7649 31.8252 31.8244 31.8522 31.8692 31.9714 31.9685 31.9764 32.0089 32.0774 32.0706 32.1036 32.1799 32.2075 32.2437 32.2468 32.2741 32.3386 32.3535 32.3788 32.4307
27.7272 27.7227 27.716 27.7056 27.6904 27.7026 27.6646 27.6338 27.6335 27.6427 27.6605 27.6703 27.6813 27.6682 27.6357 27.6255 27.6214 27.6055 27.5978 27.5785 27.5833 27.5682 27.5753 27.5672 27.5532 27.5606 27.5529 27.5309 27.5378 27.5203 27.5185 27.5124 27.5283 27.4943 27.5231 27.4952 27.4922 27.4881 27.4743 27.4822 27.4657 27.4774 27.4687 27.4514 27.4514 27.4403 27.4418 27.4334 27.428 27.4357 27.4211 27.4214 27.4067 27.4117 27.4076 27.4033 27.3988 27.3948 27.3985 27.3808 27.3905 27.3754 27.3756 27.3837 27.3581 27.3676 27.3644 27.376 27.3681 27.3617 27.3421 27.3607 27.3524 27.3045 27.3111 27.3248 27.3355 27.3471 27.3636 27.3462 27.3357 27.3207 27.3279 27.3301 27.3292 27.3283 27.324 27.3368 27.3367 27.3328 27.328 27.3158 27.3118 27.3151 27.3223 27.3136 27.325 27.3187 27.3166 27.3061 27.3098 27.3258 27.3245 27.3121 27.3135 27.3101 27.3161 27.3228 27.3302 27.3115 27.2999 27.332 27.3234 27.3101 27.3148 27.3121 27.323 27.3347 27.3362 27.3259 27.3299 27.3257 27.3322 27.3301 27.3313 27.3595 27.358 27.3469 27.3585 27.3502 27.3387 27.3575 27.3507 27.3329 27.3193 27.3112 27.3116 27.31 27.2994 27.3084 27.3237 27.3299 27.345 27.3488 27.3843 27.3631 27.3639 27.3632 27.3663 27.3619 27.3739 27.3909 27.3911 27.3669 27.3965 27.3827 27.3868 27.4013 27.398 27.4101 27.4 27.4043 27.4141 27.4309 27.4356 27.4199 27.4332 27.434 27.44 27.4383 27.4384 27.4309 27.4467 27.4534 27.455 27.4794 27.4658 27.4747 27.4629 27.4666 27.4793 27.4875 27.4855 27.4992 27.5077 27.4962 27.5032 27.5142 27.5272 27.5105 27.5369 27.5632 27.5711 27.5849 27.5934 27.6032 27.5855 27.6066 27.583 27.5859 27.5642 27.5842 27.5592 27.5838 27.6001 27.6042 27.6284 27.6307 27.6547 27.6426 27.6707 27.6538 27.6887 27.6841 27.7064 27.713 27.6926 27.708 27.7176 27.7171 27.7468 27.7514 27.7483 27.7604 27.7691 27.7568 27.7816 27.7948 27.8143 27.8161 27.8115 27.8275 27.8522 27.8612 27.8657 27.8543 27.8873 27.8661 27.8827 27.8905 27.9086 27.9343 27.9468 27.9572 27.9471 27.9701 27.9784 27.9806 27.9819 28.0027 28.0267 28.0404 28.0599 28.0613 28.067 28.0857 28.091 28.087 28.108 28.1217 28.1473 28.1395 28.1615 28.1473 28.1837 28.1848 28.2063 28.2246 28.2383 28.2173 28.2489 28.2896 28.293 28.2962 28.2888 28.3382 28.3595 28.3603 28.3773 28.3647 28.4166 28.4312 28.4129 28.4624 28.4594 28.4698 28.4866 28.5279 28.5001 28.5301 28.5662 28.5858 28.5849 28.5894 28.5993 28.6586 28.6552 28.6611 28.6718 28.6816 28.7201 28.7072 28.7286 28.7392 28.7942 28.7734 28.8068 28.809 28.8429 28.8743 28.866 28.8814 28.9145 28.8876 28.9695 28.973 28.9837 29.0463 28.9956 28.9906 29.0698 29.0652 29.1012 29.0845 29.1488 29.1388 29.1451 29.2083 29.208 29.2337 29.2321 29.258 29.2727 29.2883 29.3117 29.3418 29.3552 29.3636 29.4163 29.4005 29.4162 29.4525 29.4641 29.5053 29.5207 29.5796 29.5668 29.5831 29.6411 29.6377 29.6138 29.6928 29.6376 29.7335 29.7536 29.7805 29.7548 29.8225 29.8243 29.885 29.9188 29.958 29.9356 29.9887 29.9999 30.0154 30.0208 30.0452 30.0307 30.0797 30.1166 30.1237 30.1362 30.2302 30.2116 30.228 30.25 30.2843 30.3038 30.3326 30.3703 30.3747 30.409 30.4461 30.4582 30.4915 30.5261 30.5108 30.5541 30.6004 30.6264 30.6619 30.6855 30.6675 30.7284 30.7258 30.771 30.8086 30.836 30.8498 30.8804 30.8472 30.9262 30.9394 31.0046 31.0095 31.0333 31.0474 31.0754 31.1199 31.1698 31.2095 31.1991 31.2415 31.241 31.2743 31.3271 31.3685 31.3998 31.417 31.4256 31.4583 31.4726 31.5215 31.5796 31.6022 31.61 31.6581 31.6487 31.7152 31.7267 31.7806 31.8084 31.8027 31.8478 31.9124 31.9323 31.9896 31.9914 32.054 32.0575 32.0776 32.1083 32.1715 32.2106 32.2352 32.2337 32.2879 32.3038 32.3538
27.7028 27.6714 27.6591 27.6645 27.6457 27.6088 27.5897 27.5996 27.6072 27.6297 27.6253 27.6348 27.6294 27.585 27.5706 27.5805 27.5738 27.5544 27.5484 27.5316 27.533 27.5258 27.5296 27.5114 27.5056 27.4902 27.5027 27.49 27.482 27.4896 27.4899 27.4601 27.459 27.4595 27.4546 27.4548 27.4422 27.4449 27.4328 27.4245 27.4189 27.4243 27.4091 27.4054 27.3949 27.3983 27.3945 27.3859 27.3667 27.3831 27.3746 27.3713 27.3587 27.3624 27.3547 27.3547 27.34 27.3412 27.343 27.353 27.3322 27.3424 27.3335 27.3394 27.3198 27.3185 27.3311 27.3112 27.3135 27.3254 27.2963 27.2866 27.2667 27.2549 27.2723 27.2789 27.3068 27.3149 27.3113 27.2887 27.2905 27.2845 27.2839 27.2827 27.2691 27.2736 27.2741 27.295 27.2775 27.2843 27.273 27.2694 27.2714 27.262 27.2724 27.268 27.2869 27.2712 27.2824 27.2696 27.2674 27.268 27.2546 27.2735 27.2853 27.2623 27.2738 27.2675 27.2677 27.2627 27.2671 27.2721 27.2643 27.2691 27.2678 27.2812 27.271 27.2812 27.2727 27.2739 27.2887 27.2802 27.2819 27.2841 27.261 27.2925 27.2958 27.3085 27.2957 27.2848 27.3008 27.3013 27.3056 27.2869 27.2826 27.2823 27.279 27.2687 27.2738 27.2585 27.2706 27.2683 27.2831 27.3025 27.3292 27.3237 27.3202 27.326 27.3241 27.3212 27.3166 27.3339 27.3348 27.3434 27.3406 27.3594 27.3511 27.3499 27.3452 27.3511 27.3635 27.3688 27.3648 27.3758 27.3618 27.3639 27.3659 27.395 27.3938 27.4059 27.394 27.3922 27.4072 27.4096 27.398 27.4053 27.4203 27.414 27.4078 27.4315 27.4501 27.4433 27.4436 27.4555 27.4565 27.4598 27.4665 27.4738 27.4732 27.4736 27.5125 27.4959 27.5 27.5107 27.5326 27.5439 27.5489 27.5596 27.5525 27.5632 27.5458 27.5386 27.5417 27.5301 27.5285 27.5352 27.5827 27.5873 27.594 27.6173 27.612 27.6259 27.6278 27.6305 27.6351 27.6341 27.6473 27.6739 27.6804 27.6773 27.6887 27.6945 27.7077 27.6934 27.7253 27.7046 27.7101 27.744 27.7309 27.7479 27.7607 27.7945 27.8007 27.7982 27.8171 27.8207 27.8381 27.8414 27.8325 27.8472 27.8707 27.8689 27.8779 27.904 27.8949 27.8962 27.9144 27.9282 27.9642 27.9418 27.9539 27.9795 27.9843 28.0093 27.9974 27.9976 28.0521 28.0524 28.0625 28.0827 28.08 28.0778 28.1076 28.1045 28.1512 28.1384 28.1643 28.1664 28.1871 28.1734 28.2066 28.2296 28.2406 28.2524 28.2536 28.2833 28.3034 28.3037 28.3329 28.3414 28.3464 28.3746 28.3853 28.3904 28.401 28.4281 28.4395 28.4533 28.4822 28.467 28.4888 28.5257 28.5371 28.534 28.539 28.5686 28.6182 28.6015 28.5963 28.6367 28.6597 28.673 28.6648 28.6747 28.7245 28.7588 28.7521 28.7803 28.7613 28.8144 28.7975 28.8456 28.8349 28.8649 28.885 28.9003 28.9154 28.9372 28.9438 28.9634 29.0134 28.9846 29.0347 29.0548 29.0764 29.0842 29.0985 29.1327 29.1501 29.1486 29.1861 29.2087 29.2359 29.2831 29.2512 29.2915 29.2849 29.3366 29.3567 29.3979 29.3674 29.414 29.4447 29.4718 29.4297 29.4531 29.4811 29.5342 29.5245 29.5601 29.6005 29.603 29.6245 29.6337 29.6343 29.7152 29.7102 29.7306 29.7561 29.814 29.8554 29.8644 29.8575 29.8903 29.9345 29.9953 30.0021 30.0078 30.0131 30.0304 30.044 30.061 30.109 30.1132 30.1586 30.1546 30.2186 30.2255 30.242 30.2838 30.3081 30.3045 30.3701 30.3455 30.3849 30.4428 30.4534 30.47 30.5116 30.5333 30.5582 30.568 30.5815 30.6352 30.6429 30.7043 30.7173 30.7142 30.7625 30.7866 30.8254 30.8479 30.8619 30.8797 30.9295 30.9547 30.9899 31.017 31.0203 31.0775 31.0922 31.129 31.1393 31.1735 31.2108 31.234 31.2584 31.2803 31.2977 31.3353 31.3511 31.3942 31.445 31.4262 31.4619 31.5124 31.5298 31.5879 31.6018 31.6516 31.6833 31.7365 31.7186 31.7721 31.7952 31.8335 31.8721 31.9245 31.9457 31.9716 32.0273 32.0023 32.0444 32.0909 32.0995 32.1678 32.1898 32.238 32.2651 32.2895
27.6354 27.6199 27.6132 27.6158 27.5746 27.5452 27.5544 27.5597 27.5738 27.5913 27.5853 27.5796 27.5418 27.5397 27.5302 27.5209 27.5197 27.5048 27.4975 27.5079 27.4875 27.4746 27.4715 27.4739 27.4662 27.4427 27.4523 27.4383 27.4375 27.4309 27.4239 27.4201 27.4068 27.4088 27.3975 27.3971 27.3827 27.38 27.379 27.3785 27.3754 27.3699 27.3607 27.3636 27.3336 27.3588 27.3414 27.3455 27.3379 27.3319 27.3313 27.3194 27.3108 27.3113 27.3162 27.3092 27.2994 27.2908 27.2915 27.2811 27.2954 27.2747 27.2968 27.2815 27.2926 27.281 27.2667 27.272 27.2631 27.2553 27.2422 27.2167 27.2217 27.2191 27.2322 27.2464 27.2558 27.2588 27.2512 27.2366 27.2297 27.2237 27.2467 27.2215 27.2445 27.2296 27.2271 27.2385 27.2261 27.2121 27.2319 27.2275 27.2278 27.2232 27.2291 27.2272 27.2118 27.2141 27.2129 27.2104 27.2286 27.2316 27.2219 27.2182 27.2116 27.2246 27.2156 27.2345 27.2293 27.2277 27.2325 27.2214 27.219 27.2124 27.2199 27.235 27.2343 27.2246 27.236 27.2353 27.2333 27.223 27.246 27.2447 27.2288 27.2268 27.2353 27.2453 27.2349 27.2291 27.2543 27.2397 27.2477 27.2465 27.2649 27.2402 27.2436 27.2442 27.2335 27.2153 27.2303 27.2152 27.2141 27.2193 27.2313 27.2447 27.2725 27.2652 27.2584 27.2989 27.2849 27.2796 27.2896 27.289 27.3055 27.2931 27.2999 27.2933 27.3035 27.3052 27.31 27.3123 27.3325 27.3286 27.321 27.3157 27.3325 27.3389 27.3478 27.3485 27.3539 27.3609 27.3564 27.3523 27.3642 27.3642 27.3638 27.3737 27.3809 27.3797 27.3994 27.393 27.4077 27.4011 27.3968 27.4071 27.4173 27.4222 27.435 27.4297 27.4318 27.4627 27.4487 27.4802 27.4565 27.4936 27.5113 27.5144 27.5113 27.5266 27.5224 27.5168 27.5174 27.5186 27.4913 27.5072 27.5025 27.5022 27.5199 27.5564 27.5434 27.5787 27.5747 27.5761 27.588 27.5961 27.6065 27.6229 27.6119 27.6272 27.6289 27.6573 27.6535 27.6754 27.684 27.6633 27.6949 27.7037 27.7105 27.7083 27.692 27.7184 27.7425 27.7414 27.7572 27.7537 27.7815 27.7993 27.7944 27.7908 27.8182 27.8173 27.831 27.8648 27.8575 27.8871 27.8817 27.8888 27.8797 27.9035 27.8843 27.9205 27.9299 27.9612 27.955 27.979 27.9619 27.9694 28.0238 28.0109 28.0339 28.0387 28.0588 28.0547 28.073 28.0946 28.0946 28.1211 28.1228 28.1457 28.1515 28.1585 28.1981 28.1972 28.2385 28.2429 28.2199 28.2544 28.2678 28.273 28.2738 28.2948 28.3086 28.343 28.3344 28.3624 28.3936 28.3952 28.4107 28.4159 28.4435 28.4585 28.4457 28.474 28.495 28.5134 28.4988 28.5305 28.5575 28.5853 28.5975 28.5923 28.616 28.6322 28.6604 28.6694 28.6932 28.7262 28.7347 28.7027 28.7623 28.7544 28.7667 28.8105 28.8447 28.9051 28.8688 28.8863 28.9081 28.8997 28.9115 28.9439 28.9459 28.9996 28.9779 29.0404 29.0407 29.0626 29.0731 29.1171 29.1384 29.1422 29.1331 29.1682 29.2153 29.2111 29.2597 29.2483 29.2839 29.3206 29.3492 29.325 29.353 29.4133 29.4083 29.4045 29.4615 29.4384 29.4981 29.4919 29.5183 29.5237 29.5732 29.6358 29.6459 29.6472 29.6387 29.6871 29.6796 29.6802 29.764 29.8129 29.7951 29.8476 29.8245 29.8633 29.9611 29.9852 29.9961 30.0056 30.0307 30.0275 30.0353 30.0767 30.0905 30.0799 30.1395 30.1697 30.1961 30.204 30.2055 30.2402 30.2823 30.3142 30.3414 30.3888 30.4112 30.4033 30.4151 30.4617 30.4866 30.4757 30.5651 30.5632 30.6017 30.6523 30.6656 30.6886 30.6755 30.752 30.7516 30.7721 30.7945 30.83 30.8756 30.8776 30.9377 30.9556 30.9652 30.9969 31.0231 31.0368 31.1058 31.1209 31.1509 31.1587 31.1827 31.2371 31.2366 31.2777 31.3091 31.3272 31.3533 31.3352 31.411 31.4555 31.4711 31.5308 31.5561 31.5372 31.6032 31.6406 31.6784 31.6887 31.7192 31.786 31.8037 31.8158 31.8633 31.8524 31.9547 31.955 31.9946 32.033 32.0546 32.1051 32.0962 32.1569 32.1662 32.247
27.5961 27.5785 27.562 27.528 27.5085 27.5231 27.5213 27.5318 27.5461 27.5557 27.5403 27.5134 27.5036 27.512 27.4929 27.4769 27.4642 27.4532 27.4485 27.4384 27.4491 27.4427 27.4196 27.4218 27.4057 27.3996 27.4004 27.3866 27.3981 27.3781 27.3691 27.3644 27.3571 27.37 27.3539 27.352 27.3401 27.3308 27.329 27.3204 27.3188 27.323 27.3069 27.3095 27.3048 27.3074 27.2971 27.2906 27.2765 27.2741 27.271 27.2634 27.2718 27.2676 27.256 27.2625 27.256 27.247 27.235 27.2421 27.233 27.2295 27.2315 27.231 27.2186 27.2201 27.2116 27.2302 27.2158 27.215 27.1741 27.1805 27.1798 27.1881 27.2083 27.2117 27.2149 27.1922 27.1712 27.1888 27.1904 27.2035 27.1851 27.1783 27.1848 27.1796 27.173 27.1699 27.1703 27.1742 27.1695 27.1715 27.1725 27.1646 27.1756 27.175 27.1524 27.1611 27.1728 27.1706 27.1597 27.1728 27.1683 27.1528 27.1583 27.1723 27.163 27.1597 27.1707 27.1694 27.1756 27.1726 27.1858 27.1832 27.1834 27.1706 27.178 27.1737 27.1744 27.1777 27.1757 27.1843 27.1847 27.19 27.1927 27.1876 27.1853 27.1968 27.1886 27.1868 27.1804 27.1814 27.1786 27.193 27.2032 27.2002 27.2078 27.2169 27.2028 27.1919 27.1967 27.1867 27.186 27.1732 27.1773 27.1874 27.1852 27.1995 27.2223 27.2006 27.2325 27.231 27.2271 27.2441 27.2614 27.2471 27.2379 27.2734 27.2576 27.2683 27.2518 27.2511 27.2699 27.2618 27.2636 27.2909 27.31 27.2765 27.2859 27.3118 27.2892 27.3026 27.3015 27.3194 27.3159 27.3183 27.3181 27.3238 27.3267 27.3454 27.3302 27.3457 27.3479 27.3568 27.3535 27.3668 27.368 27.3806 27.3831 27.3857 27.3983 27.3936 27.4007 27.392 27.4213 27.4189 27.4062 27.4526 27.4529 27.4926 27.4823 27.5028 27.4923 27.4828 27.4857 27.4732 27.4627 27.4733 27.4679 27.4706 27.4828 27.5156 27.5008 27.5485 27.5391 27.5458 27.5383 27.5616 27.5714 27.5807 27.5911 27.5893 27.6178 27.6046 27.6292 27.6099 27.6368 27.6575 27.6568 27.6594 27.6617 27.6817 27.6745 27.7153 27.7089 27.7237 27.7359 27.7386 27.7389 27.7482 27.761 27.7676 27.7766 27.7988 27.8283 27.8082 27.8287 27.8449 27.8489 27.8475 27.853 27.8728 27.8565 27.9069 27.924 27.9108 27.9212 27.9349 27.9542 27.9477 27.962 27.9743 28.0101 28.0192 28.0124 28.0289 28.0271 28.0667 28.0835 28.0891 28.107 28.0986 28.1277 28.1525 28.1784 28.16 28.1686 28.1991 28.2244 28.2303 28.2379 28.2723 28.2909 28.2794 28.2973 28.3017 28.3392 28.3287 28.3797 28.3714 28.3947 28.411 28.4188 28.4512 28.4399 28.4862 28.4637 28.4827 28.5252 28.5217 28.5304 28.5112 28.5382 28.5865 28.5953 28.6309 28.6305 28.6296 28.6745 28.6866 28.7093 28.6886 28.7218 28.7272 28.7557 28.7802 28.794 28.822 28.86 28.8708 28.8684 28.8888 28.9764 28.9178 28.9256 28.9703 29.0062 29.0138 29.0551 29.0094 29.038 29.1036 29.1217 29.1249 29.1124 29.1677 29.2061 29.1533 29.2565 29.2322 29.2704 29.2706 29.327 29.3063 29.3499 29.3867 29.3794 29.4051 29.4263 29.4673 29.4523 29.4798 29.4911 29.5262 29.5682 29.5597 29.6002 29.6234 29.6463 29.6798 29.652 29.7055 29.7496 29.7659 29.8069 29.789 29.8614 29.8864 29.909 29.9342 29.9916 29.9811 30.0124 30.0326 30.0278 30.0496 30.0527 30.1037 30.1494 30.1684 30.1665 30.217 30.2364 30.2623 30.2697 30.3125 30.3089 30.3618 30.3862 30.4154 30.4348 30.4872 30.5042 30.4994 30.5395 30.5707 30.5875 30.5959 30.616 30.63 30.707 30.7403 30.7703 30.7567 30.78 30.8024 30.8355 30.8604 30.8663 30.9421 30.9818 30.978 31.0095 31.0281 31.0697 31.0999 31.1536 31.1831 31.2062 31.2498 31.2398 31.2802 31.2889 31.3632 31.3729 31.4135 31.4043 31.4344 31.4533 31.5289 31.5696 31.557 31.62 31.6442 31.6487 31.6785 31.7138 31.8012 31.8001 31.8443 31.8513 31.8757 31.9266 31.9532 31.9896 32.0009 32.0426 32.0765 32.1364 32.1547
27.5424 27.5194 27.4741 27.4614 27.479 27.4823 27.5153 27.5056 27.4969 27.4711 27.4726 27.4486 27.4597 27.4387 27.4384 27.4369 27.4298 27.4083 27.4065 27.395 27.3913 27.3917 27.3736 27.3536 27.36 27.3546 27.3491 27.3435 27.344 27.3287 27.3272 27.3289 27.3192 27.2983 27.3188 27.2964 27.2854 27.2872 27.2758 27.2803 27.2707 27.2606 27.273 27.2591 27.2605 27.2487 27.2485 27.244 27.2317 27.2238 27.2226 27.2322 27.2203 27.216 27.1979 27.2078 27.1966 27.1946 27.1936 27.186 27.1902 27.1738 27.1894 27.1816 27.1837 27.1708 27.1671 27.1712 27.1502 27.1344 27.128 27.1337 27.1483 27.1706 27.1672 27.1785 27.1665 27.1384 27.1387 27.1427 27.1453 27.1523 27.128 27.1503 27.1217 27.1473 27.1208 27.1176 27.1223 27.1195 27.1331 27.1297 27.1396 27.1256 27.1175 27.1304 27.1114 27.1197 27.1106 27.1096 27.1243 27.1038 27.1075 27.1198 27.1148 27.1099 27.1248 27.1345 27.127 27.1396 27.1321 27.1298 27.1228 27.122 27.1215 27.1236 27.1363 27.1335 27.1325 27.1404 27.1358 27.1404 27.1312 27.1411 27.1458 27.1463 27.1453 27.1582 27.1607 27.1585 27.1534 27.1463 27.1378 27.1412 27.1453 27.1665 27.1571 27.1667 27.1674 27.1625 27.1576 27.1593 27.1484 27.1463 27.1378 27.1371 27.1435 27.1516 27.1399 27.1482 27.1948 27.1918 27.185 27.1844 27.1989 27.2082 27.1967 27.1908 27.2044 27.1969 27.2295 27.218 27.2027 27.2359 27.2452 27.2409 27.235 27.2418 27.2337 27.2491 27.2543 27.2442 27.2609 27.2535 27.2852 27.282 27.2722 27.2776 27.2828 27.2957 27.2897 27.3136 27.3025 27.2999 27.3181 27.3102 27.322 27.3204 27.3301 27.3295 27.3408 27.3488 27.3507 27.3668 27.3611 27.368 27.3914 27.3773 27.4037 27.4245 27.421 27.4475 27.4767 27.4585 27.4622 27.4485 27.4555 27.4468 27.4371 27.4375 27.4426 27.4495 27.4565 27.476 27.4917 27.4831 27.487 27.4975 27.5094 27.5314 27.5466 27.5477 27.5612 27.5768 27.5751 27.584 27.5868 27.5959 27.6112 27.6186 27.6257 27.6319 27.6422 27.6542 27.6711 27.6799 27.6784 27.6806 27.6915 27.7219 27.7317 27.7075 27.7277 27.7422 27.7449 27.7708 27.7793 27.7797 27.8232 27.8081 27.7948 27.8335 27.8496 27.8647 27.8474 27.8732 27.8723 27.8846 27.8928 27.9168 27.9232 27.9286 27.9601 27.949 27.9756 27.9987 27.9899 28.0063 28.0416 28.029 28.0683 28.0415 28.0761 28.0864 28.1542 28.1016 28.1113 28.1736 28.1507 28.1815 28.1851 28.2148 28.2301 28.2477 28.2362 28.2597 28.2974 28.2677 28.3284 28.3255 28.3461 28.3669 28.3494 28.4108 28.3922 28.4208 28.4163 28.4433 28.4612 28.4699 28.4791 28.5172 28.5331 28.5462 28.557 28.5574 28.6246 28.6052 28.6134 28.6247 28.6786 28.6664 28.6661 28.7001 28.7032 28.7516 28.749 28.8122 28.7803 28.8272 28.8251 28.794 28.8389 28.8765 28.9263 28.9129 28.9183 28.9495 28.9854 28.989 29.0269 29.033 29.0644 29.0578 29.1164 29.1315 29.1446 29.1454 29.1636 29.181 29.229 29.2218 29.2588 29.3044 29.2895 29.2982 29.3486 29.359 29.3975 29.3763 29.4284 29.4419 29.4407 29.4668 29.5252 29.4976 29.4898 29.5586 29.5881 29.6348 29.6564 29.6728 29.6474 29.7272 29.7098 29.7447 29.7572 29.8002 29.8298 29.8587 29.9321 29.9602 29.9488 29.9515 29.9937 30.0153 30.0286 30.0483 30.068 30.0914 30.0857 30.1863 30.1456 30.1962 30.1714 30.2567 30.2713 30.3011 30.3392 30.359 30.3986 30.3359 30.4182 30.453 30.4507 30.5056 30.5355 30.5788 30.6036 30.6237 30.6121 30.6499 30.6848 30.7152 30.7062 30.7386 30.8252 30.8197 30.8444 30.8555 30.8828 30.9253 30.9576 31.0033 31.0182 31.0557 31.0944 31.0586 31.1336 31.1521 31.1774 31.2216 31.2572 31.2841 31.3151 31.3493 31.363 31.3822 31.4164 31.4536 31.4961 31.5031 31.5383 31.5658 31.609 31.6291 31.6704 31.6499 31.7155 31.7108 31.812 31.8487 31.8713 31.9015 31.9461 31.9308 32.0123 32.0302 32.0587 32.1018
27.464 27.4437 27.4326 27.4359 27.453 27.4682 27.4667 27.4696 27.4509 27.42 27.4127 27.413 27.3966 27.4003 27.3872 27.3758 27.3755 27.3611 27.3591 27.3505 27.3433 27.3456 27.3226 27.3199 27.3154 27.2918 27.2971 27.2934 27.2918 27.2776 27.2903 27.2853 27.2813 27.2619 27.252 27.2398 27.238 27.2344 27.234 27.2337 27.2203 27.2281 27.2145 27.2017 27.2064 27.1983 27.1905 27.1851 27.1901 27.1774 27.1659 27.1837 27.1879 27.1616 27.1564 27.1616 27.1526 27.1509 27.1525 27.1436 27.1438 27.1479 27.162 27.1401 27.1189 27.1206 27.124 27.1143 27.0799 27.0911 27.0956 27.1087 27.1333 27.1331 27.1264 27.1103 27.1014 27.0826 27.086 27.0832 27.1004 27.0965 27.0856 27.0877 27.0853 27.0772 27.0738 27.0815 27.0831 27.0774 27.0834 27.071 27.0842 27.0661 27.0816 27.065 27.0687 27.0633 27.0763 27.0805 27.0714 27.065 27.0689 27.0664 27.0713 27.0816 27.0775 27.0825 27.0917 27.0783 27.0792 27.0727 27.0774 27.0866 27.0644 27.0827 27.0771 27.0816 27.0792 27.0921 27.0732 27.0892 27.0806 27.0986 27.1013 27.0855 27.0976 27.1026 27.1164 27.1122 27.1154 27.1182 27.1073 27.0994 27.0982 27.0855 27.1034 27.1181 27.1213 27.13 27.1126 27.1184 27.1168 27.1115 27.1132 27.0973 27.1054 27.1035 27.1033 27.1034 27.1088 27.1117 27.1304 27.1433 27.1474 27.1452 27.1689 27.1815 27.1593 27.1479 27.1651 27.1671 27.1608 27.173 27.1839 27.1692 27.1782 27.1961 27.2002 27.2124 27.1949 27.2082 27.2112 27.2239 27.2288 27.2329 27.2213 27.2112 27.2472 27.2476 27.24 27.2575 27.2526 27.2579 27.2541 27.281 27.2824 27.28 27.2869 27.2922 27.2908 27.3083 27.3035 27.3111 27.2952 27.335 27.3358 27.3366 27.3418 27.3561 27.3664 27.3455 27.3913 27.3858 27.4086 27.4308 27.4328 27.4178 27.415 27.4046 27.4014 27.4088 27.4093 27.4049 27.4306 27.4265 27.4413 27.4327 27.4511 27.4656 27.4858 27.5156 27.5194 27.514 27.5212 27.5491 27.5412 27.5628 27.5557 27.5854 27.5932 27.5933 27.5902 27.5961 27.6076 27.6377 27.6458 27.6375 27.6701 27.6698 27.6586 27.6839 27.683 27.7027 27.7129 27.7166 27.7228 27.7293 27.7284 27.7667 27.7613 27.7938 27.7688 27.78 27.8118 27.835 27.8436 27.845 27.8543 27.8669 27.8873 27.8762 27.8936 27.898 27.8964 27.9238 27.9471 27.9781 27.9883 27.9897 28.0008 28.0007 28.021 28.0512 28.0741 28.0607 28.0642 28.1277 28.1376 28.1346 28.1443 28.1473 28.1867 28.174 28.1892 28.211 28.2296 28.2212 28.245 28.2648 28.2925 28.285 28.2992 28.3451 28.3441 28.3415 28.3652 28.3872 28.4158 28.4451 28.4004 28.4573 28.4621 28.5012 28.4791 28.4919 28.4856 28.569 28.5495 28.557 28.5776 28.6067 28.6549 28.6385 28.6534 28.7021 28.717 28.7222 28.7166 28.7745 28.7798 28.7954 28.7974 28.8453 28.7952 28.8846 28.8918 28.9212 28.9208 28.9374 28.9685 29.0032 29.0054 29.0073 29.0463 29.0683 29.0769 29.0767 29.0915 29.1478 29.17 29.1765 29.1871 29.2353 29.2211 29.2386 29.2803 29.3183 29.3068 29.299 29.3624 29.3502 29.362 29.4308 29.4101 29.4737 29.5109 29.5175 29.5031 29.5626 29.5712 29.5817 29.6281 29.644 29.6622 29.6883 29.7082 29.7324 29.7702 29.757 29.8076 29.8533 29.9094 29.9352 29.9465 29.9665 29.996 30.0227 30.0222 30.0361 30.0357 30.0567 30.1048 30.1427 30.1542 30.1793 30.2015 30.2148 30.239 30.3121 30.2934 30.3631 30.3756 30.3775 30.4265 30.457 30.4647 30.4779 30.512 30.5294 30.5685 30.5301 30.5902 30.6571 30.7013 30.7087 30.7047 30.7677 30.7638 30.812 30.8346 30.8841 30.9005 30.9213 30.9364 30.9775 31.0171 31.0085 31.063 31.1096 31.1183 31.1533 31.1917 31.1948 31.226 31.2647 31.3276 31.3051 31.3558 31.4055 31.4067 31.4389 31.4623 31.5027 31.5348 31.5625 31.6085 31.6583 31.6764 31.7042 31.7201 31.7623 31.7644 31.844 31.8506 31.9033 31.9308 31.9415 31.9719 32.0294
27.3983 27.3943 27.3926 27.4079 27.4211 27.4235 27.4106 27.3949 27.3801 27.3753 27.3677 27.3607 27.3528 27.3416 27.3297 27.3372 27.3232 27.3137 27.321 27.3027 27.2993 27.2853 27.2806 27.2647 27.2609 27.254 27.2489 27.2456 27.2425 27.2357 27.2416 27.2241 27.2195 27.2118 27.2111 27.2112 27.1987 27.1894 27.2026 27.1822 27.1757 27.1747 27.1742 27.1535 27.1627 27.1532 27.133 27.1468 27.1408 27.1315 27.1308 27.1232 27.1235 27.1221 27.1046 27.1082 27.1101 27.1109 27.099 27.1029 27.0954 27.0999 27.0832 27.0746 27.0873 27.0748 27.0634 27.04 27.03 27.0464 27.0597 27.0822 27.0759 27.0876 27.0665 27.0558 27.0456 27.0504 27.0382 27.0412 27.0356 27.0396 27.0349 27.0444 27.0317 27.0446 27.0333 27.0345 27.0321 27.0258 27.0319 27.0194 27.019 27.0365 27.0321 27.018 27.0406 27.0122 27.0257 27.0251 27.0251 27.0265 27.0165 27.0221 27.0087 27.0192 27.03 27.0341 27.0363 27.0385 27.0327 27.0188 27.0396 27.0192 27.0312 27.0349 27.0206 27.0338 27.0417 27.0439 27.0229 27.0408 27.0435 27.0511 27.0438 27.0588 27.049 27.0496 27.0622 27.0493 27.0689 27.0844 27.056 27.0585 27.0714 27.0594 27.0617 27.0536 27.0603 27.0713 27.0889 27.0811 27.0674 27.081 27.0805 27.0705 27.071 27.0632 27.0535 27.0571 27.0691 27.0646 27.0754 27.0875 27.0942 27.0881 27.1059 27.1019 27.1115 27.118 27.1134 27.1145 27.1312 27.1427 27.1496 27.1367 27.151 27.1487 27.1493 27.1789 27.1609 27.1561 27.1743 27.1752 27.1819 27.1686 27.1744 27.2041 27.1925 27.1824 27.2065 27.2144 27.2016 27.2232 27.2176 27.2359 27.2287 27.217 27.2348 27.2444 27.2512 27.255 27.2744 27.2751 27.2855 27.279 27.2974 27.2764 27.3029 27.2948 27.3157 27.2938 27.3243 27.3221 27.3408 27.3566 27.3809 27.3892 27.395 27.3898 27.3848 27.3821 27.3682 27.3672 27.3716 27.3978 27.3945 27.4053 27.4084 27.4136 27.4368 27.461 27.474 27.4783 27.4856 27.4952 27.495 27.5053 27.4998 27.5328 27.5229 27.5473 27.551 27.5456 27.583 27.5742 27.5724 27.584 27.5946 27.612 27.6256 27.6317 27.6393 27.6315 27.6503 27.6579 27.6791 27.6806 27.7115 27.6849 27.7144 27.7217 27.7581 27.7583 27.7815 27.773 27.7655 27.7697 27.7918 27.8139 27.84 27.8252 27.8578 27.8571 27.8859 27.8876 27.9218 27.9096 27.9173 27.9342 27.9314 27.9537 27.9707 27.9801 28.002 28.0304 28.0507 28.0409 28.0756 28.0966 28.0954 28.0716 28.107 28.1711 28.1507 28.1459 28.1847 28.2085 28.2021 28.1953 28.2313 28.2705 28.262 28.2325 28.2855 28.3305 28.3042 28.3239 28.3473 28.3596 28.3825 28.3752 28.4074 28.4182 28.4679 28.4433 28.4867 28.505 28.5016 28.5394 28.5334 28.5777 28.5834 28.6223 28.5926 28.6414 28.6487 28.6601 28.6879 28.6993 28.6903 28.717 28.7466 28.7791 28.8042 28.7996 28.8586 28.8731 28.8534 28.9008 28.9048 28.9322 28.9354 28.9884 28.9833 28.9926 29.0715 29.0408 29.0665 29.0919 29.0767 29.0955 29.1287 29.1952 29.1377 29.164 29.21 29.2311 29.2597 29.2825 29.3066 29.3133 29.3886 29.3555 29.3762 29.378 29.3986 29.4556 29.4703 29.4914 29.5006 29.5433 29.5693 29.6012 29.6241 29.6043 29.626 29.6237 29.697 29.716 29.7591 29.7443 29.8071 29.8657 29.8901 29.8922 29.9226 29.9678 29.964 30.0055 30.0105 30.0236 30.0365 30.0648 30.0583 30.1292 30.131 30.2032 30.2076 30.203 30.2891 30.3122 30.3178 30.325 30.3669 30.3798 30.4101 30.4338 30.4332 30.4854 30.5533 30.5441 30.5482 30.5393 30.6093 30.6628 30.6739 30.7266 30.7106 30.6789 30.7518 30.7861 30.8506 30.8179 30.8866 30.8838 30.9294 30.9676 31.0034 31.0482 30.988 31.0548 31.1198 31.1664 31.1858 31.1831 31.2531 31.2461 31.2914 31.2917 31.3404 31.3721 31.4278 31.4167 31.4763 31.5017 31.5219 31.5548 31.5784 31.646 31.6691 31.7156 31.7261 31.7692 31.7776 31.8032 31.8533 31.8675 31.9316 31.94
27.3545 27.3641 27.3842 27.376 27.3894 27.3901 27.3618 27.3323 27.3286 27.3355 27.324 27.3046 27.2979 27.3064 27.3002 27.2867 27.2705 27.2769 27.2613 27.2619 27.2488 27.2322 27.2429 27.2216 27.2109 27.2004 27.2036 27.1893 27.1798 27.1891 27.1741 27.1742 27.1624 27.1728 27.1566 27.1498 27.1444 27.154 27.1308 27.1378 27.1214 27.1124 27.1196 27.1166 27.1059 27.1196 27.0957 27.0934 27.0918 27.0999 27.081 27.0601 27.0684 27.0775 27.0561 27.0671 27.0474 27.0491 27.0488 27.0512 27.0463 27.0374 27.0294 27.0343 27.0303 27.0111 26.9801 26.9859 27.0027 27.0135 27.0305 27.0483 27.0328 27.0307 27.0074 27.0051 27.0023 27.003 26.9923 27.0003 26.9908 26.9828 26.9874 26.9937 26.9911 26.9947 27.0105 26.9944 26.9797 26.9915 26.9883 26.9784 26.9898 26.9839 26.9731 26.9726 26.9781 27.0011 26.9734 26.9795 26.9781 26.9869 26.9858 26.9651 26.9895 26.9853 26.964 26.9915 26.9884 26.9719 26.967 26.9637 26.984 26.979 26.9805 26.985 26.988 26.9683 26.9827 26.9726 26.993 27.0018 26.9883 26.99 27.0056 27.0036 26.9938 27.0044 26.9971 27.0122 27.0225 27.0123 27.0222 27.0397 27.0219 26.9953 26.9988 27.0101 27.0156 27.0294 27.0253 27.0376 27.0319 27.0551 27.0441 27.0366 27.0434 27.0229 27.0328 27.0338 27.0443 27.0227 27.0234 27.0136 27.0284 27.0317 27.0412 27.061 27.0537 27.0746 27.0769 27.0718 27.0841 27.0892 27.088 27.0836 27.0965 27.1091 27.1037 27.1042 27.1172 27.1261 27.1278 27.1216 27.1219 27.13 27.1379 27.1574 27.1349 27.1501 27.1463 27.1463 27.1521 27.1659 27.1772 27.1677 27.1827 27.1899 27.1841 27.1971 27.1984 27.2072 27.2057 27.2101 27.218 27.2292 27.2507 27.2515 27.2518 27.2606 27.2576 27.2942 27.29 27.2769 27.2849 27.2987 27.3268 27.2951 27.3502 27.3438 27.3535 27.3675 27.3492 27.323 27.3392 27.3406 27.3749 27.3616 27.3622 27.3728 27.3732 27.3856 27.3811 27.4336 27.4457 27.4467 27.4469 27.463 27.4642 27.4902 27.4962 27.5103 27.506 27.5108 27.5255 27.5291 27.5485 27.556 27.5859 27.5756 27.5913 27.5754 27.5935 27.6024 27.6143 27.6068 27.6235 27.6381 27.6489 27.6652 27.6612 27.7017 27.6973 27.6999 27.7013 27.7071 27.7133 27.7654 27.7494 27.7834 27.7556 27.8064 27.8092 27.8155 27.8322 27.8121 27.8505 27.8495 27.8725 27.8816 27.9098 27.9292 27.9124 27.9188 27.9316 27.9751 27.9926 27.9897 27.9981 28.0343 28.0414 28.05 28.0378 28.091 28.0955 28.0918 28.1055 28.1245 28.1554 28.1624 28.1827 28.2096 28.2207 28.2489 28.2413 28.2531 28.2783 28.2516 28.3046 28.3355 28.341 28.3399 28.3746 28.3643 28.4134 28.3859 28.4225 28.4582 28.4454 28.4522 28.4834 28.5167 28.5411 28.5262 28.542 28.56 28.5947 28.5875 28.6122 28.6502 28.6748 28.6673 28.6973 28.7213 28.7319 28.7452 28.7984 28.7841 28.7973 28.8391 28.8371 28.8609 28.8908 28.9405 28.9121 28.9564 28.9603 29.0034 29.0155 29.0165 29.0513 29.0747 29.0834 29.1066 29.1163 29.1123 29.1367 29.1834 29.1918 29.2067 29.2282 29.2633 29.2991 29.3133 29.3407 29.3443 29.3602 29.4129 29.4077 29.3887 29.416 29.4708 29.4733 29.5074 29.5597 29.5501 29.5881 29.6008 29.6548 29.6505 29.6966 29.7166 29.7163 29.7722 29.7622 29.7928 29.8548 29.9025 29.8967 29.9719 29.9318 29.9755 30.0037 30.0062 30.0417 30.0461 30.1015 30.1036 30.1311 30.1304 30.2143 30.2275 30.2386 30.2879 30.2982 30.2979 30.337 30.3838 30.3995 30.366 30.4687 30.4621 30.4973 30.5237 30.5743 30.5819 30.5902 30.5905 30.645 30.6922 30.7297 30.7663 30.7592 30.7976 30.8251 30.8858 30.8952 30.9128 30.9489 30.9809 30.9953 31.0469 31.0585 31.1017 31.0669 31.1177 31.1284 31.1826 31.2552 31.2505 31.3277 31.2955 31.3142 31.3423 31.4102 31.4495 31.4778 31.51 31.5471 31.54 31.6007 31.6341 31.6344 31.7243 31.7336 31.7435 31.7941 31.8089 31.8535 31.8419
27.3313 27.3415 27.3407 27.3499 27.3439 27.3274 27.3156 27.2994 27.2958 27.2852 27.2801 27.277 27.2457 27.2504 27.2407 27.2361 27.2337 27.2279 27.2194 27.2102 27.1984 27.1908 27.1867 27.1837 27.1751 27.1593 27.1617 27.1364 27.1392 27.1462 27.1259 27.1307 27.1185 27.1103 27.1205 27.1036 27.1185 27.1043 27.0802 27.0887 27.0833 27.0734 27.0687 27.0652 27.0601 27.0547 27.0514 27.0497 27.0365 27.0464 27.0291 27.0305 27.0217 27.0237 27.0075 27.0077 27.0084 27.0109 27.006 27.0057 27.0099 26.988 26.9792 26.9897 26.9805 26.9293 26.9523 26.9472 26.9695 26.9863 26.9935 26.9911 26.973 26.9649 26.9591 26.9541 26.9477 26.9509 26.9468 26.9526 26.9619 26.9407 26.9458 26.9343 26.9315 26.9485 26.9304 26.9437 26.9514 26.9457 26.9578 26.9422 26.9316 26.9391 26.9358 26.928 26.9165 26.9348 26.9461 26.931 26.9361 26.9434 26.9238 26.9262 26.9306 26.9379 26.9308 26.9156 26.9333 26.9372 26.9377 26.9318 26.9255 26.9237 26.9128 26.9346 26.9386 26.95 26.9324 26.9388 26.9427 26.9547 26.9395 26.936 26.9484 26.944 26.9373 26.9551 26.951 26.9527 26.956 26.9655 26.9531 26.9563 26.9555 26.9568 26.9634 26.9633 26.9884 26.973 26.9802 26.9756 26.9765 26.9851 26.9917 26.9908 27.0045 27.0035 26.9983 27.0114 27.0127 27.0021 26.9846 26.9674 26.9754 26.9718 26.9856 27.0158 27.0076 27.0274 27.0218 27.0431 27.0278 27.0591 27.0494 27.0508 27.053 27.0528 27.0592 27.057 27.0557 27.0759 27.0841 27.0767 27.0703 27.0912 27.097 27.0905 27.0876 27.1101 27.0887 27.1055 27.128 27.1238 27.1198 27.1278 27.1408 27.1553 27.1531 27.1743 27.1626 27.168 27.1801 27.1835 27.1748 27.1877 27.198 27.187 27.2106 27.2008 27.23 27.2359 27.228 27.2302 27.2465 27.2358 27.2501 27.2698 27.2728 27.2962 27.3147 27.3337 27.3057 27.2796 27.2889 27.307 27.3204 27.3244 27.3367 27.3313 27.3274 27.3466 27.3248 27.3668 27.3931 27.3795 27.3954 27.4157 27.4204 27.4418 27.4528 27.458 27.4505 27.4594 27.4907 27.5015 27.4981 27.5054 27.4978 27.5259 27.5394 27.5392 27.5544 27.5603 27.5631 27.5632 27.5805 27.5813 27.6096 27.6108 27.6202 27.6174 27.6435 27.666 27.6658 27.6762 27.7029 27.6943 27.7039 27.7202 27.7193 27.7331 27.7191 27.7697 27.771 27.775 27.8061 27.8105 27.8146 27.8281 27.8555 27.862 27.8893 27.8761 27.8866 27.9185 27.9191 27.9242 27.917 27.9671 27.9821 27.9743 28.0076 28.0197 28.048 28.052 28.0506 28.0847 28.0897 28.0954 28.1473 28.1488 28.1503 28.1425 28.19 28.1935 28.2127 28.2113 28.2531 28.244 28.2629 28.3127 28.2949 28.3225 28.3523 28.3407 28.376 28.372 28.4335 28.4064 28.4584 28.4381 28.4705 28.5152 28.4987 28.513 28.5377 28.577 28.574 28.5997 28.6307 28.6036 28.6257 28.6645 28.6837 28.6735 28.7073 28.7226 28.7493 28.757 28.7681 28.8211 28.8295 28.839 28.8755 28.8943 28.9026 28.9256 28.974 28.962 28.9863 29.022 29.0088 29.0476 29.0165 29.1158 29.0932 29.072 29.1248 29.1894 29.1573 29.1849 29.2488 29.2129 29.2618 29.2734 29.2983 29.3389 29.3448 29.3435 29.4113 29.4186 29.457 29.4418 29.5035 29.5016 29.5463 29.5549 29.5936 29.6125 29.6326 29.6114 29.6394 29.6792 29.697 29.7281 29.7429 29.751 29.8078 29.8731 29.9554 29.9253 29.9274 29.9809 29.9842 30.0133 30.0467 30.0441 30.0711 30.0949 30.0893 30.118 30.1909 30.2389 30.2246 30.2931 30.2779 30.3362 30.3467 30.3744 30.4024 30.3979 30.403 30.4443 30.479 30.5248 30.5364 30.5942 30.6231 30.612 30.6563 30.692 30.7277 30.7048 30.7771 30.8055 30.8164 30.8405 30.8878 30.9242 30.9596 30.8788 30.9538 31.0303 31.0145 31.0862 31.1048 31.1543 31.1355 31.1751 31.2446 31.2477 31.3144 31.3084 31.37 31.3636 31.3846 31.4295 31.4756 31.5148 31.561 31.5726 31.583 31.6217 31.6719 31.6706 31.742 31.7458 31.7981 31.8221
27.2921 27.3018 27.3084 27.2901 27.26 27.2742 27.261 27.2468 27.2574 27.2315 27.2162 27.2272 27.2076 27.2095 27.2113 27.1821 27.1838 27.1733 27.1605 27.1486 27.14 27.1436 27.1336 27.1393 27.1191 27.108 27.1001 27.0972 27.0936 27.0823 27.0779 27.0716 27.0744 27.0707 27.0704 27.0631 27.0577 27.0554 27.046 27.036 27.034 27.0221 27.0099 27.0173 27.0003 27.0064 27.0074 26.9959 26.984 26.9802 26.9809 26.9726 26.9822 26.9768 26.9632 26.9598 26.9649 26.9705 26.9515 26.9598 26.9344 26.9434 26.9361 26.9218 26.9024 26.9043 26.9176 26.9196 26.9527 26.9532 26.9506 26.9333 26.9291 26.9049 26.9029 26.9106 26.9138 26.9092 26.8997 26.9081 26.8999 26.9013 26.9037 26.8958 26.8939 26.8965 26.8953 26.8864 26.887 26.8812 26.8988 26.8814 26.8815 26.9031 26.8779 26.8875 26.8784 26.8829 26.8777 26.8774 26.8924 26.887 26.8877 26.8818 26.883 26.884 26.8783 26.8717 26.8726 26.8768 26.8819 26.8758 26.8798 26.8789 26.8759 26.8846 26.8808 26.881 26.8914 26.8877 26.8854 26.8991 26.8862 26.8996 26.8947 26.9137 26.8983 26.8906 26.905 26.9127 26.9198 26.9192 26.9195 26.885 26.8918 26.911 26.9113 26.9543 26.9419 26.9385 26.942 26.9316 26.931 26.9195 26.9447 26.9425 26.94 26.9816 26.9833 26.9833 26.9755 26.9591 26.9491 26.9531 26.9396 26.9396 26.9346 26.9366 26.9674 26.9472 26.9667 26.9662 26.9616 26.9996 26.9937 26.9818 27.0232 26.9879 27.0281 27.0319 27.0293 27.0245 27.0263 27.0438 27.0307 27.0189 27.0563 27.0482 27.0638 27.0625 27.0723 27.0674 27.0738 27.0828 27.096 27.0804 27.0924 27.0876 27.0947 27.1226 27.1331 27.1131 27.1171 27.1254 27.1486 27.1348 27.1414 27.1354 27.1699 27.1665 27.157 27.1722 27.1741 27.1879 27.1961 27.1949 27.1949 27.2249 27.2096 27.2497 27.2232 27.271 27.2476 27.2556 27.2627 27.2739 27.2723 27.2882 27.2858 27.2955 27.2954 27.3038 27.2934 27.3247 27.3176 27.3152 27.3616 27.3787 27.3849 27.3909 27.4096 27.4043 27.4072 27.4241 27.4395 27.457 27.4337 27.4522 27.4708 27.4747 27.4757 27.5272 27.4951 27.4972 27.5126 27.5056 27.541 27.556 27.5592 27.5787 27.5707 27.603 27.5922 27.5935 27.6146 27.6323 27.6523 27.6473 27.6638 27.6739 27.6851 27.6851 27.7153 27.7253 27.7161 27.7443 27.7542 27.7604 27.7758 27.7944 27.7641 27.7919 27.8084 27.8182 27.8504 27.8767 27.8959 27.8936 27.913 27.9192 27.9286 27.9241 27.9104 27.9806 27.9881 27.9818 27.9796 28.0199 28.0684 28.0583 28.0759 28.1111 28.1129 28.1307 28.1236 28.1457 28.1907 28.1894 28.1866 28.1981 28.2646 28.2536 28.2516 28.27 28.2834 28.2994 28.3199 28.3294 28.3357 28.3501 28.3903 28.3626 28.4056 28.4199 28.4353 28.4577 28.4721 28.4846 28.5084 28.5569 28.5287 28.5502 28.6238 28.6052 28.6027 28.6406 28.6412 28.6471 28.6882 28.6968 28.7156 28.7323 28.7822 28.7966 28.8147 28.814 28.8568 28.9058 28.8999 28.8812 28.958 28.959 28.9747 28.974 29.0132 29.0347 29.0499 29.0231 29.0957 29.0791 29.122 29.1563 29.1692 29.1954 29.2318 29.2593 29.2426 29.29 29.3092 29.3285 29.342 29.3429 29.3911 29.3893 29.4525 29.4085 29.4479 29.4954 29.5087 29.5405 29.5751 29.5781 29.5564 29.625 29.641 29.679 29.6998 29.6864 29.7492 29.7926 29.802 29.8456 29.8903 29.9047 29.9664 29.9918 29.9942 30.0068 30.007 30.0475 30.0487 30.0803 30.1005 30.1559 30.1707 30.1795 30.2238 30.2405 30.2662 30.3256 30.2867 30.3595 30.3727 30.378 30.465 30.4547 30.4423 30.5103 30.5706 30.5479 30.5988 30.6364 30.6504 30.6656 30.7314 30.7484 30.7751 30.8053 30.843 30.8538 30.8449 30.8459 30.936 30.9557 30.9932 31.0128 31.0455 31.0557 31.1297 31.1486 31.1576 31.185 31.1955 31.2634 31.3017 31.3153 31.3574 31.3876 31.3978 31.45 31.4386 31.5093 31.5181 31.5635 31.6267 31.6328 31.6527 31.686 31.7444 31.7493
