# .PCD v0.7 - Point Cloud Data file format
VERSION 0.7
FIELDS x y z intensity
SIZE 4 4 4 4
TYPE F F F F
COUNT 1 1 1 1
WIDTH 1399
HEIGHT 1
VIEWPOINT 0 0 0 1 0 0 0
POINTS 1399
DATA ascii
36.448429 -34.241135 0.10935239 3
37.372307 -34.237446 0.10909993 20
38.8102 -34.29401 0.13281155 16
46.014305 -34.216644 0.15677834 2
60.332802 -34.240322 0.14127895 0
38.303497 -34.120041 0.10407854 3
41.734768 -34.170105 0.18125744 7
42.827522 -34.160107 0.13811192 3
43.28978 -34.107098 0.17951849 10
43.886662 -34.156773 0.17669936 11
44.096706 -34.123428 0.14069548 10
44.836151 -34.170296 0.16434619 11
45.33424 -34.114601 0.19972518 14
45.788948 -34.159088 0.16169423 16
46.95195 -34.188862 0.16902171 0
61.797836 -34.128582 0.17735712 0
34.626545 -34.058006 0.10419886 6
39.226009 -34.059334 0.13364412 10
40.180771 -34.023674 0.14428976 10
42.4473 -34.014465 0.11215897 4
43.097553 -34.053848 0.17808916 10
43.67934 -34.095291 0.17415492 10
44.571571 -34.054588 0.18675725 11
45.159389 -34.089802 0.18367694 10
36.374207 -33.961845 0.1022477 4
38.703979 -33.986267 0.13565218 10
40.010784 -33.977142 0.13201636 1
45.373257 -33.951618 0.10403602 0
59.291656 -33.931461 0.17844319 1
60.037361 -33.942211 0.19759519 7
28.960833 -33.827328 0.12000164 9
29.30987 -33.843536 0.1469496 0
39.64933 -33.839222 0.12092757 7
41.631943 -33.874996 0.16996799 9
42.235527 -33.899963 0.10188656 3
43.171577 -33.801273 0.17076157 9
43.75058 -33.835426 0.17507416 9
44.697392 -33.848721 0.16044974 11
45.156418 -33.889992 0.10957436 0
45.622105 -33.815178 0.16824742 14
46.744572 -33.813328 0.19051945 0
33.707722 -33.771263 0.10432805 3
40.076523 -33.72435 0.14020795 10
40.467258 -33.781071 0.1066438 6
42.960606 -33.730431 0.18017741 11
43.53809 -33.769127 0.17614646 11
43.935059 -33.779484 0.15182769 11
44.413548 -33.715988 0.19379018 12
29.614609 -33.625847 0.1837811 1
36.270073 -33.65007 0.11545284 7
42.298752 -33.678375 0.12369319 2
45.903778 -33.681095 0.19307368 1
32.787876 -33.585835 0.12645259 1
40.694286 -33.573292 0.13905776 9
41.506718 -33.560078 0.17185792 1
41.688637 -33.574631 0.16817077 10
43.607796 -33.510155 0.17776738 10
44.546276 -33.518322 0.16370656 11
59.784046 -33.563534 0.18923068 10
34.450161 -33.457882 0.12667377 3
39.978935 -33.433834 0.13282387 4
42.827885 -33.4132 0.18076186 10
43.019482 -33.466042 0.18088007 10
43.406593 -33.454182 0.17376076 12
43.788681 -33.45187 0.15581912 11
44.295979 -33.415951 0.18076037 10
44.855606 -33.428448 0.18752074 12
45.479382 -33.494644 0.16360869 12
38.503208 -33.389729 0.13597371 7
39.814701 -33.392956 0.11868691 4
42.14085 -33.335846 0.14119442 2
45.753933 -33.356102 0.1909014 10
61.219143 -33.330906 0.17608534 1
34.408913 -33.218266 0.10527115 2
39.469551 -33.271961 0.10101856 7
40.594215 -33.282928 0.1307734 5
41.361645 -33.228176 0.18561968 6
41.567085 -33.265827 0.16796875 7
37.968876 -33.18541 0.13187706 8
38.413807 -33.106178 0.13021861 8
38.934597 -33.180679 0.12233619 12
39.908882 -33.173027 0.10978714 1
41.897049 -33.191452 0.15085152 12
42.357521 -33.136272 0.18275756 11
42.704891 -33.10717 0.17683765 10
42.888 -33.15221 0.18073826 10
43.271168 -33.137798 0.17421983 11
43.466545 -33.188541 0.18044883 10
43.657661 -33.1404 0.15252751 9
44.399513 -33.194065 0.16555659 11
44.710285 -33.106949 0.18735002 11
44.895222 -33.141289 0.19589615 11
45.318493 -33.160576 0.16893761 11
45.850422 -33.137302 0.18981422 22
46.457607 -33.177731 0.17427598 0
36.996086 -33.054844 0.11941946 3
39.641048 -33.027344 0.15774737 4
40.647846 -33.075634 0.16411313 7
41.992466 -33.00478 0.15427807 12
44.132706 -33.077236 0.19217832 12
46.194519 -33.079819 0.19836619 0
37.89521 -32.918758 0.11856928 6
39.335445 -32.946133 0.11841447 7
40.448265 -32.949341 0.14964637 5
41.263416 -32.943676 0.17373648 9
41.457775 -32.970856 0.16159068 7
44.889286 -32.943073 0.12454303 0
45.295208 -32.946945 0.10553721 0
46.140774 -32.937469 0.18641677 0
33.07851 -32.889805 0.10491019 0
38.323349 -32.82346 0.12565041 11
38.822453 -32.876316 0.1288532 9
39.624649 -32.822735 0.10410196 2
39.780499 -32.855408 0.12173467 2
40.630196 -32.869419 0.10864442 2
41.786469 -32.896557 0.14402685 10
42.256268 -32.851494 0.16894744 12
42.782738 -32.864582 0.16718245 12
43.140079 -32.827511 0.17312759 10
43.340668 -32.883034 0.17575064 12
43.528259 -32.832474 0.14912644 13
44.248737 -32.868511 0.1703065 11
45.712273 -32.826317 0.18246754 17
30.278078 -32.730267 0.10486642 2
31.018513 -32.786663 0.13835968 0
36.931961 -32.797291 0.10388895 3
40.892773 -32.722427 0.11794851 2
41.392998 -32.720173 0.13076645 6
42.578026 -32.799629 0.17572439 10
43.993298 -32.762016 0.19203341 12
44.572205 -32.793953 0.18427801 11
45.464867 -32.721722 0.1837547 2
46.629166 -32.757164 0.19640099 0
70.24305 -32.736046 0.16807292 19
33.020515 -32.629936 0.1016787 2
35.094906 -32.622776 0.12256711 1
37.790318 -32.62077 0.12540711 3
39.231178 -32.652916 0.11856432 4
40.38026 -32.694492 0.12401936 3
41.126652 -32.624229 0.18426664 5
41.861778 -32.692665 0.15834333 11
59.191692 -32.65361 0.15890542 0
35.071804 -32.503437 0.11245739 4
35.938816 -32.522064 0.11655916 7
36.36961 -32.546616 0.13443825 1
36.839657 -32.510704 0.10712183 1
38.229286 -32.538918 0.12385014 7
38.732265 -32.596676 0.12256555 13
40.006561 -32.56321 0.11624683 5
41.653179 -32.582302 0.15053022 10
42.132175 -32.547421 0.16832052 11
42.670918 -32.572823 0.15781499 10
43.010586 -32.520779 0.17191708 10
43.208115 -32.573578 0.17533246 11
43.389381 -32.518173 0.15149719 11
44.116371 -32.561325 0.16630118 11
45.018528 -32.518017 0.17115331 12
45.561539 -32.506798 0.18220505 14
32.54858 -32.429417 0.10311518 6
33.78936 -32.454529 0.10871055 2
40.434227 -32.491032 0.15667054 5
40.769459 -32.416527 0.12283394 4
42.455486 -32.498146 0.17297086 11
43.855503 -32.450367 0.19182204 11
44.432957 -32.482056 0.18258481 12
37.729755 -32.371624 0.10479058 5
39.572624 -32.368061 0.15005565 2
40.996738 -32.313564 0.19164866 11
41.219723 -32.36845 0.16173601 13
41.738068 -32.38921 0.15925285 12
45.882904 -32.336819 0.16158965 27
30.174629 -32.209953 0.11623286 5
36.756199 -32.235729 0.10508699 4
38.129063 -32.249947 0.12642753 5
39.517555 -32.22089 0.15138872 8
39.858929 -32.232201 0.13940489 9
41.53495 -32.284302 0.14932485 11
41.979683 -32.219292 0.18407549 11
42.348289 -32.21265 0.16252454 12
42.525032 -32.252094 0.16763821 10
42.88826 -32.222534 0.16757724 12
43.082729 -32.272621 0.17182253 11
43.254902 -32.209923 0.15229158 11
43.996902 -32.267418 0.15630792 1
44.879559 -32.209362 0.1678874 12
45.449715 -32.221962 0.16323155 0
39.336357 -32.162472 0.15061074 4
43.719368 -32.142269 0.1915081 10
44.286915 -32.166397 0.18518758 11
45.242569 -32.151802 0.1460996 0
34.500107 -32.024311 0.1278578 3
36.241798 -32.038254 0.10865676 2
37.589844 -32.040909 0.13490073 4
38.525585 -32.016315 0.12776504 9
40.119526 -32.068756 0.1470857 6
40.881794 -32.019199 0.1912066 11
41.120571 -32.088993 0.15153962 13
41.615944 -32.089294 0.15996602 14
58.688797 -32.024094 0.19921416 12
33.261448 -31.99906 0.1210673 4
36.64687 -31.934769 0.12048046 2
38.037979 -31.972404 0.12384982 11
39.406601 -31.927261 0.15500651 10
40.216267 -31.910133 0.15421678 1
41.418327 -31.989809 0.14788336 12
41.853287 -31.917381 0.18617526 10
42.411003 -31.962322 0.16085331 12
42.748207 -31.910484 0.1735125 11
42.95068 -31.96776 0.1726034 12
43.130417 -31.912573 0.1484807 11
43.842606 -31.94528 0.1652714 11
44.747986 -31.908997 0.16161141 3
45.938931 -31.976778 0.12411091 0
32.83614 -31.848652 0.10171159 5
34.046242 -31.858963 0.11502156 2
34.46941 -31.897619 0.12433612 4
35.31131 -31.860537 0.11959141 2
40.51675 -31.805326 0.13816053 11
41.503593 -31.800407 0.1558819 16
42.204319 -31.895737 0.17289504 12
43.587692 -31.840126 0.18959618 11
44.14819 -31.859159 0.18478777 12
45.245056 -31.861757 0.19174096 10
37.509529 -31.774788 0.12779814 5
38.44257 -31.74967 0.11867946 5
40.016621 -31.785629 0.14355648 13
40.765759 -31.725805 0.19203407 13
40.9799 -31.772583 0.16556399 13
41.344067 -31.73638 0.12319284 7
45.609089 -31.730764 0.14772548 2
46.368397 -31.769711 0.16194181 0
33.996975 -31.620255 0.10135747 3
34.431026 -31.672171 0.10121761 5
35.679306 -31.68462 0.12975538 2
37.945866 -31.695692 0.12243614 9
39.302433 -31.642309 0.15516771 7
40.096348 -31.61219 0.1603108 13
41.731251 -31.621487 0.18655144 12
42.125233 -31.639387 0.14829119 11
42.276592 -31.656199 0.16589139 12
42.620872 -31.611845 0.17331077 10
42.814724 -31.661512 0.17622283 11
43.706841 -31.641323 0.16530769 0
38.847565 -31.533216 0.10463008 4
39.10342 -31.566351 0.16672394 7
39.920647 -31.511028 0.13653241 7
40.432949 -31.543022 0.12217106 8
41.461044 -31.577299 0.11315691 2
43.449291 -31.534193 0.19197972 12
44.013996 -31.557833 0.18279067 12
44.177368 -31.574564 0.19866148 12
44.586792 -31.58577 0.17129704 11
44.924332 -31.509418 0.15998654 0
46.224106 -31.559074 0.19481273 0
58.501221 -31.594074 0.12495437 1
32.74295 -31.463108 0.10357362 3
37.39521 -31.475224 0.14286371 5
37.883507 -31.451159 0.10282068 7
40.689095 -31.47113 0.17090671 4
40.919621 -31.44169 0.10175929 1
41.20359 -31.423723 0.13648576 3
41.742493 -31.448011 0.1132255 2
42.237778 -31.437281 0.11908716 1
46.016628 -31.493547 0.19119532 1
39.037815 -31.321108 0.14495884 5
39.239334 -31.399258 0.13121051 6
40.036743 -31.37352 0.13166822 4
41.360348 -31.302454 0.10362948 2
42.009369 -31.351679 0.14453119 3
42.548027 -31.363184 0.14415063 12
42.705494 -31.380791 0.16611369 13
42.85582 -31.301439 0.15677628 11
43.567131 -31.336033 0.16817217 10
45.432945 -31.398741 0.16166264 12
45.644024 -31.358974 0.12131657 0
37.32814 -31.226471 0.12828374 5
38.258041 -31.203146 0.11346439 7
40.31863 -31.253771 0.12445213 5
40.611496 -31.217131 0.15080616 3
40.827793 -31.265759 0.12177724 4
43.318207 -31.236607 0.19122629 11
43.953991 -31.228672 0.1070914 1
44.949726 -31.242899 0.19392717 9
31.093643 -31.134789 0.1102236 0
35.108875 -31.185045 0.12846138 4
39.125237 -31.108318 0.13844298 4
41.11919 -31.164406 0.11865447 3
44.714622 -31.149879 0.19407074 5
40.249008 -31.008097 0.10126477 6
40.746277 -31.009619 0.10374765 3
41.48941 -31.037674 0.18807741 5
41.884163 -31.057568 0.14660515 12
42.059757 -31.096237 0.14946087 3
42.368484 -31.022564 0.17376868 11
42.561752 -31.071774 0.17538631 13
43.431957 -31.036657 0.16939028 11
44.369587 -31.033136 0.13876641 4
45.47456 -31.035452 0.13219076 1
37.229549 -30.947033 0.13434853 4
40.497784 -30.931377 0.15206279 3
42.840767 -30.960135 0.19518788 2
43.18322 -30.93767 0.19327827 10
44.63879 -30.902613 0.16047074 0
44.821987 -30.952837 0.18605483 2
45.751564 -30.907104 0.17306812 2
38.999496 -30.808197 0.15333596 6
40.992897 -30.868698 0.12522605 12
41.476952 -30.845543 0.12888452 1
43.377781 -30.807695 0.12822889 5
46.270023 -30.867046 0.19603717 26
37.618015 -30.736431 0.12500274 5
38.861748 -30.791758 0.13000846 4
39.640072 -30.704836 0.11440482 3
41.741276 -30.749821 0.1592031 11
41.905441 -30.77857 0.16759874 12
42.296448 -30.777987 0.14534386 11
42.596367 -30.711632 0.15981154 12
43.653175 -30.700689 0.15920934 2
43.844093 -30.740786 0.15861711 1
44.193554 -30.703871 0.15849589 6
45.123398 -30.776087 0.17062607 12
32.136013 -30.654039 0.1095926 5
40.08411 -30.675674 0.13433617 11
40.429123 -30.688829 0.12781742 1
40.557804 -30.657497 0.14793561 11
41.057293 -30.666668 0.14411364 4
43.055607 -30.646994 0.19211239 10
44.681637 -30.654411 0.18535347 6
46.199215 -30.625658 0.15578038 3
58.505108 -30.655638 0.18752791 2
28.443295 -30.521906 0.1465591 10
37.554325 -30.584391 0.13658586 8
39.729218 -30.545761 0.12446651 1
41.292912 -30.501909 0.16668421 5
41.721985 -30.552731 0.10349752 1
41.836063 -30.537458 0.13932122 2
42.326866 -30.505447 0.16743116 9
45.097572 -30.571037 0.11078045 2
45.588219 -30.592342 0.18051958 3
37.098415 -30.460791 0.10540082 1
39.510639 -30.406042 0.12951617 2
40.004433 -30.42417 0.11813673 7
40.485138 -30.413065 0.12598817 5
42.16766 -30.485718 0.14861768 2
42.469238 -30.421902 0.16096756 12
43.085384 -30.490849 0.10709257 1
43.540329 -30.424793 0.1487693 2
44.12254 -30.462864 0.12434657 2
44.458496 -30.480261 0.14537652 2
44.609604 -30.413012 0.1502964 2
45.193233 -30.440878 0.12739114 0
45.581749 -30.402897 0.11007918 0
45.979305 -30.476347 0.11429349 0
28.744028 -30.311581 0.1582745 9
37.501064 -30.3557 0.11302829 4
39.167355 -30.30419 0.11641563 6
40.234634 -30.333059 0.1772245 7
43.728374 -30.371698 0.11390097 1
44.418095 -30.356287 0.13049585 0
46.458656 -30.399675 0.16278474 10
58.251381 -30.30015 0.18811046 3
35.286919 -30.284184 0.10740677 2
38.82428 -30.286812 0.13861409 1
39.571796 -30.222603 0.15584783 1
40.753494 -30.295153 0.13282141 13
41.16283 -30.208467 0.17485142 7
42.202274 -30.21892 0.16835399 11
46.000851 -30.286829 0.17912574 4
46.625454 -30.233791 0.11230086 2
28.389086 -30.18034 0.14798532 1
32.032524 -30.18041 0.10288608 4
36.981499 -30.168299 0.1247794 5
40.384308 -30.144691 0.12085673 5
40.837574 -30.113976 0.13998446 6
41.705307 -30.155193 0.11267142 1
42.026615 -30.184866 0.15935059 11
42.47472 -30.105661 0.1885208 3
42.839729 -30.104322 0.17065261 4
43.585415 -30.163557 0.15441129 3
43.901138 -30.100874 0.16940312 9
44.832581 -30.17672 0.17330261 11
45.023254 -30.123358 0.14103849 2
45.830868 -30.17684 0.11406913 0
57.406033 -30.110315 0.16277735 4
28.331793 -30.011837 0.18433678 8
28.68763 -30.058004 0.17578244 11
33.594818 -30.099958 0.10353363 4
35.217716 -30.037374 0.10314675 2
37.402946 -30.083996 0.11847205 5
38.719299 -30.01222 0.14261691 7
39.053471 -30.021881 0.12447205 1
40.131351 -30.062653 0.17431864 6
44.409283 -30.070133 0.18191446 5
45.880928 -30.01075 0.16450009 1
46.484653 -30.03471 0.14359863 6
31.963449 -29.92522 0.11345219 2
32.764542 -29.905647 0.10001683 1
35.6082 -29.942179 0.10405716 3
38.518841 -29.935759 0.15977602 6
39.456299 -29.940453 0.16299954 2
41.062103 -29.94278 0.16703601 7
41.538635 -29.922171 0.17293628 10
41.909695 -29.906704 0.15745069 9
42.090683 -29.945353 0.16278692 12
42.94865 -29.906637 0.1506692 6
44.781651 -29.954647 0.12740478 1
45.281544 -29.984869 0.18788984 1
58.761871 -29.964039 0.18596904 3
28.312502 -29.81114 0.17014024 5
29.38583 -29.888008 0.13201571 2
39.280769 -29.841515 0.14432772 11
40.244247 -29.842899 0.13915271 3
41.367062 -29.886631 0.17082649 11
42.356285 -29.827566 0.1856766 4
43.444477 -29.868292 0.15951544 2
44.317932 -29.816538 0.15808214 0
45.601784 -29.817255 0.1549989 1
28.979666 -29.782089 0.18046749 3
29.672224 -29.744665 0.17341994 8
38.631954 -29.756046 0.13636771 2
40.005276 -29.773485 0.1853303 11
40.509926 -29.725603 0.14538683 12
42.031563 -29.71792 0.12882379 2
42.663616 -29.778769 0.19772868 10
43.194412 -29.779572 0.19389938 11
44.129776 -29.762613 0.13829713 0
45.751148 -29.728821 0.15546393 0
46.145729 -29.793116 0.1671862 4
57.151814 -29.757536 0.16799937 2
29.344145 -29.660652 0.13306391 1
30.050774 -29.624306 0.12067915 5
36.813976 -29.655554 0.12208349 7
37.710369 -29.698591 0.13511375 1
38.134895 -29.605413 0.12672552 7
38.44886 -29.609808 0.11402535 1
39.326283 -29.646925 0.1794478 13
40.916088 -29.63929 0.1855879 12
41.278305 -29.633774 0.15571938 3
41.45245 -29.671478 0.15576388 12
41.777737 -29.617579 0.16454569 14
42.152103 -29.618176 0.13313982 2
42.79678 -29.603077 0.16440924 6
44.569519 -29.607061 0.16479431 7
45.210209 -29.657257 0.11511869 0
47.015701 -29.604223 0.15571038 2
28.970373 -29.598066 0.15460733 1
29.624714 -29.511759 0.17791744 5
37.201134 -29.540688 0.13448946 2
37.685776 -29.588854 0.12193603 4
38.876247 -29.509758 0.11158279 4
39.180458 -29.575548 0.14383225 11
39.648613 -29.573217 0.14171392 12
39.949139 -29.548901 0.15589894 3
40.100342 -29.539816 0.16040069 13
40.62764 -29.577076 0.13262291 4
43.138546 -29.555874 0.15510699 4
43.239334 -29.522869 0.19953135 5
43.61879 -29.514055 0.17806882 13
44.185001 -29.531496 0.15641561 1
45.510094 -29.565445 0.1279874 1
46.082703 -29.563231 0.12435631 1
28.641905 -29.478228 0.11796417 1
38.527683 -29.485703 0.14101645 3
39.257385 -29.411085 0.15986866 13
40.42514 -29.476261 0.13117833 4
42.58786 -29.4503 0.13748433 0
44.665226 -29.480839 0.1801893 10
45.641071 -29.463617 0.13728049 0
46.1353 -29.406324 0.16655397 2
46.92926 -29.449133 0.15979089 8
48.103691 -29.426302 0.16902472 1
28.935116 -29.38026 0.15187612 3
29.263269 -29.382986 0.16856098 7
30.282801 -29.32399 0.19253823 1
31.804096 -29.395212 0.15216595 3
34.99226 -29.372417 0.13055871 3
35.827477 -29.321663 0.12038148 2
36.724945 -29.396513 0.12485799 2
37.152138 -29.322258 0.10983128 3
38.047241 -29.350763 0.12321144 12
39.071091 -29.303062 0.14935118 10
39.551525 -29.312752 0.13799864 12
40.561291 -29.344896 0.10747562 3
40.807823 -29.370649 0.18329634 10
41.130051 -29.331446 0.17483182 11
41.334602 -29.395247 0.15694484 12
41.689724 -29.367491 0.14781433 3
41.850452 -29.389116 0.16295895 12
42.72942 -29.370859 0.13313091 1
44.510941 -29.381893 0.1239555 1
45.062656 -29.363266 0.11795712 0
47.071571 -29.322577 0.16373649 5
57.611023 -29.317865 0.15124455 2
59.153217 -29.353571 0.13885491 1
28.565401 -29.204145 0.15421881 3
29.569878 -29.271015 0.18891943 7
39.791012 -29.234808 0.18697132 11
39.988251 -29.267048 0.16370711 12
42.090908 -29.253057 0.19759528 6
42.418888 -29.223154 0.19590528 13
42.941338 -29.218781 0.19261898 13
43.515026 -29.253443 0.16371205 11
43.889446 -29.214685 0.12392765 0
43.992867 -29.201736 0.18634558 1
44.550373 -29.212706 0.16810052 5
45.001732 -29.226837 0.11311384 0
45.201973 -29.285269 0.11421722 2
45.852245 -29.209135 0.16519064 5
47.430779 -29.20046 0.12102381 1
48.600349 -29.254011 0.17544748 1
58.308109 -29.296846 0.16806558 3
28.905399 -29.171429 0.14434068 3
29.23905 -29.182243 0.15468632 2
30.627176 -29.161295 0.1709794 3
34.95723 -29.167244 0.10391673 1
38.265202 -29.180584 0.13951647 1
38.395721 -29.191463 0.16329388 14
39.141598 -29.134207 0.16894473 13
40.287056 -29.181814 0.14846848 11
40.695808 -29.100513 0.18374223 13
41.215763 -29.119986 0.15931548 13
41.581097 -29.101603 0.14313784 11
41.755653 -29.134871 0.1499135 14
46.397221 -29.184916 0.1795906 12
46.704403 -29.102606 0.19384091 13
56.839638 -29.173441 0.10604171 2
29.559566 -29.089718 0.16168597 3
29.956642 -29.081974 0.10708046 1
30.229252 -29.088812 0.19897519 0
30.980076 -29.000212 0.14340425 3
37.039745 -29.043837 0.12646943 7
37.50914 -29.078493 0.1198652 13
37.953354 -29.091908 0.12408122 13
39.020214 -29.085432 0.11999582 13
39.442596 -29.043383 0.14188632 12
39.886154 -29.004887 0.16172199 11
40.375088 -29.010105 0.15227501 14
41.022617 -29.066027 0.17148495 11
41.900009 -29.056934 0.1401068 0
42.526909 -29.029819 0.17579001 12
44.34333 -29.073278 0.14002025 3
45.25005 -29.008129 0.1144558 0
45.957432 -29.092995 0.18093291 12
58.223511 -29.046629 0.10715235 0
28.529745 -28.987576 0.15371197 3
29.939848 -28.977205 0.10275032 2
30.21913 -28.90959 0.16924103 2
30.982126 -28.919617 0.12154734 2
31.320829 -28.906006 0.14626823 3
38.169941 -28.922123 0.1403676 14
38.31086 -28.942789 0.15707943 12
38.636131 -28.946695 0.13920872 13
39.689266 -28.972879 0.18546669 11
40.18935 -28.924528 0.14288387 11
42.296463 -28.94799 0.19601139 11
42.820477 -28.945683 0.18993242 13
43.349575 -28.945456 0.18271181 12
43.843243 -28.90761 0.19494718 11
44.399364 -28.918358 0.17531545 12
45.421059 -28.938005 0.10272463 0
45.680096 -28.901087 0.1780239 10
46.274521 -28.914253 0.16591281 11
28.811371 -28.878494 0.19429365 8
29.149845 -28.897688 0.19797517 3
29.529081 -28.883558 0.15196559 4
37.418125 -28.823256 0.12125954 13
37.869171 -28.843801 0.11934903 13
39.041092 -28.872948 0.16938886 14
40.588398 -28.836075 0.18213752 11
41.11557 -28.862257 0.15173292 12
41.446133 -28.815428 0.15384747 12
41.594921 -28.827396 0.17424333 13
44.227345 -28.806585 0.13008082 1
44.775978 -28.876154 0.15708411 1
45.85313 -28.83618 0.15962882 3
46.640972 -28.875677 0.15028916 1
46.845329 -28.886112 0.16057183 1
47.154556 -28.820663 0.17798702 19
47.34148 -28.816833 0.18831746 18
56.585186 -28.827091 0.11464924 0
66.959534 -28.834412 0.10469406 22
28.445038 -28.706577 0.19784409 7
29.154062 -28.73716 0.15939148 7
30.535728 -28.716524 0.16789123 1
36.957703 -28.796516 0.1239888 13
38.879196 -28.787737 0.14578433 14
39.357269 -28.796751 0.13220635 13
39.60305 -28.726288 0.17529555 12
39.794132 -28.753214 0.15433966 12
40.268078 -28.746103 0.15186091 12
40.908638 -28.796753 0.17245439 11
42.409039 -28.759863 0.17321977 12
42.9249 -28.742065 0.16350266 0
28.788464 -28.68206 0.18099262 10
29.817842 -28.657278 0.16963509 7
30.159533 -28.669962 0.18112904 3
30.906385 -28.663044 0.14290315 1
31.26897 -28.679186 0.14651036 2
31.620302 -28.679365 0.16924964 4
38.041668 -28.634947 0.16232625 14
38.219742 -28.689947 0.15521589 12
38.541512 -28.691166 0.13829291 12
38.936928 -28.610125 0.17258224 13
40.085186 -28.663277 0.14161684 12
40.516285 -28.603374 0.16072932 11
42.181618 -28.680765 0.1926045 11
42.690002 -28.666634 0.19308966 12
43.229378 -28.675306 0.17840824 10
43.613174 -28.645594 0.13117561 0
43.718826 -28.635038 0.19106551 11
44.288433 -28.656654 0.16253905 1
45.557575 -28.631832 0.16686386 5
46.192905 -28.67514 0.13263795 2
54.241848 -28.695223 0.18741329 1
57.06617 -28.606623 0.17735584 3
57.902687 -28.665421 0.13632485 1
70.282196 -28.697618 0.1695876 3
28.784008 -28.511194 0.15126131 6
29.162006 -28.582335 0.11753058 2
30.159128 -28.505184 0.14345197 2
36.86692 -28.542444 0.12762877 13
37.33675 -28.578762 0.1169605 15
37.784092 -28.596441 0.11563616 15
38.791359 -28.539827 0.13982971 13
39.249187 -28.531548 0.13668033 11
40.824532 -28.554371 0.15693492 12
41.006027 -28.598289 0.15002601 11
41.304493 -28.525654 0.16900609 9
41.484047 -28.563274 0.17140932 12
44.563717 -28.538343 0.19518246 4
45.70005 -28.545027 0.16326635 3
46.401787 -28.523218 0.19317995 10
47.016609 -28.54199 0.16952485 2
47.184883 -28.525177 0.18813731 12
47.622166 -28.538393 0.16715142 5
56.266998 -28.544991 0.19394879 19
29.43321 -28.430988 0.16322102 5
29.80694 -28.47928 0.1419879 8
30.487669 -28.493595 0.16858508 6
30.85018 -28.431738 0.14862576 3
31.23237 -28.471899 0.13472709 6
31.589783 -28.479773 0.15117829 2
32.327923 -28.403843 0.16401938 5
37.971283 -28.402802 0.14867593 13
38.133095 -28.442802 0.15105893 12
38.448669 -28.438892 0.13678493 13
39.491215 -28.458824 0.18085523 10
39.681919 -28.485556 0.15942778 12
40.160122 -28.48299 0.15256982 11
41.632542 -28.490467 0.15830146 11
42.057236 -28.407534 0.19506551 12
42.298798 -28.497763 0.16709673 13
42.575821 -28.402367 0.18808553 13
43.111122 -28.408381 0.17370787 12
44.019459 -28.471148 0.16872895 11
55.504631 -28.415768 0.17564376 1
28.749058 -28.301485 0.1489073 5
31.595739 -28.323502 0.10434777 1
31.945124 -28.381388 0.16265395 9
36.793587 -28.306608 0.12036421 14
37.246567 -28.327583 0.11875761 13
37.695465 -28.347376 0.11462947 12
38.839989 -28.355438 0.17192982 13
39.974545 -28.39814 0.14471148 11
40.381901 -28.319319 0.17582721 13
40.736752 -28.310349 0.14400783 11
40.884289 -28.325844 0.15587005 10
41.377903 -28.304712 0.1665089 12
43.581749 -28.354416 0.19452421 11
44.135384 -28.364492 0.17227761 12
44.85545 -28.357441 0.17234233 12
45.113998 -28.354107 0.11488304 0
45.404221 -28.341568 0.17187251 10
45.960072 -28.327858 0.17478386 11
29.057209 -28.283155 0.17520575 1
29.413517 -28.242857 0.14455417 6
29.773331 -28.274044 0.13385727 6
30.109079 -28.280336 0.14767037 0
30.454571 -28.290306 0.15706916 0
31.206528 -28.278534 0.11446005 1
38.056316 -28.206173 0.14120434 11
38.697201 -28.28784 0.13822082 12
39.162064 -28.286484 0.12907727 11
39.394943 -28.206642 0.17770177 11
39.582542 -28.230757 0.1574638 11
40.054005 -28.223143 0.15276977 13
41.226898 -28.29064 0.14865348 13
42.181892 -28.231964 0.16523546 13
43.916145 -28.217794 0.15359251 2
45.548939 -28.257221 0.16670284 12
46.261017 -28.243876 0.18884425 10
46.86248 -28.253626 0.16963004 1
47.063805 -28.260334 0.17165372 1
47.426929 -28.222145 0.18473801 13
48.006882 -28.204224 0.18321188 20
28.736881 -28.122835 0.12621421 3
30.80764 -28.137304 0.12345716 3
31.896229 -28.1633 0.15775651 3
32.311119 -28.141113 0.11080552 1
36.317905 -28.163568 0.12042757 1
37.854462 -28.129787 0.16458213 13
38.360336 -28.19228 0.13298082 12
38.747597 -28.106405 0.16901691 12
39.874062 -28.143404 0.14239359 12
41.949066 -28.14909 0.18921426 13
42.457817 -28.136738 0.18577422 11
42.9832 -28.135603 0.17482956 13
44.461983 -28.19869 0.14234635 0
48.378681 -28.139498 0.17426835 5
55.363686 -28.13957 0.14409401 2
29.007545 -28.057043 0.18446772 4
29.375633 -28.033041 0.1418274 4
30.033632 -28.026068 0.17355096 3
30.420742 -28.087452 0.14631785 1
31.129246 -28.026457 0.13586493 4
31.489315 -28.039026 0.14687501 1
36.7089 -28.061537 0.12092234 14
37.163437 -28.084595 0.11648116 8
37.605946 -28.099104 0.11465523 13
38.599422 -28.03425 0.13933022 13
39.05761 -28.027813 0.13243514 11
40.274479 -28.059879 0.17592569 12
40.594677 -28.022629 0.16284589 10
40.79258 -28.080065 0.14512984 11
41.108795 -28.023787 0.15174903 11
41.262321 -28.040068 0.16750519 12
43.300728 -28.056103 0.16053879 1
43.536789 -28.059771 0.11584764 0
44.013706 -28.098 0.16641355 12
44.313202 -28.000237 0.18437232 2
44.882919 -28.007992 0.16167381 2
45.261806 -28.061201 0.17213722 10
45.825382 -28.053761 0.16921386 10
57.446362 -28.013844 0.128124 0
58.243618 -28.044008 0.10710511 1
61.253555 -28.063801 0.15143569 2
29.711563 -27.954725 0.13167746 6
30.406553 -27.909393 0.11935442 1
30.739817 -27.9764 0.15911627 0
31.834768 -27.932487 0.16293216 15
32.227486 -27.967373 0.15326869 8
36.244286 -27.929184 0.11564811 18
37.80386 -27.918554 0.13937172 12
37.949066 -27.943525 0.15086286 12
38.265705 -27.941603 0.13355727 12
39.33638 -27.988602 0.15247688 11
39.490559 -27.983925 0.15162408 13
39.955326 -27.971252 0.14915662 12
41.406609 -27.96521 0.15585688 12
42.078411 -27.978519 0.15658729 13
43.758976 -27.9252 0.16733915 13
45.399803 -27.972734 0.16991387 10
46.116241 -27.963438 0.18721941 10
46.689068 -27.953621 0.17989731 11
46.889938 -27.960245 0.1813574 9
47.279579 -27.941145 0.1803437 14
47.836697 -27.908287 0.18765223 14
53.179119 -27.993729 0.14059237 1
56.615513 -27.958256 0.17199549 1
29.706108 -27.867651 0.11802188 3
30.002062 -27.826965 0.16257827 8
31.10191 -27.834038 0.11718227 5
33.383705 -27.871761 0.10882688 3
37.087402 -27.84971 0.11006044 12
37.523571 -27.858927 0.11060317 13
38.657043 -27.860558 0.16547155 12
39.778236 -27.894222 0.13785523 11
40.168934 -27.803665 0.17549352 11
40.680244 -27.818789 0.14675666 11
41.828506 -27.882364 0.19081558 11
42.338871 -27.872042 0.18459995 13
42.48922 -27.880512 0.19864443 13
42.863045 -27.870586 0.17243168 13
43.333916 -27.818726 0.18957408 11
43.891087 -27.832455 0.16169047 12
48.170227 -27.818714 0.19537884 15
55.126736 -27.809822 0.15177293 2
55.821106 -27.802189 0.1479665 1
28.992685 -27.716595 0.12854026 1
29.311905 -27.712402 0.14404771 2
30.697142 -27.765787 0.154442 10
32.927151 -27.784925 0.15523489 3
36.182896 -27.707872 0.10311047 7
37.862461 -27.701128 0.14808871 11
38.221745 -27.737444 0.10309804 11
38.503468 -27.783901 0.13982794 12
38.965973 -27.781935 0.12855425 14
39.202469 -27.707102 0.17289189 14
39.386623 -27.728411 0.15342721 13
39.852959 -27.71784 0.14824262 12
40.482559 -27.761667 0.16507183 10
40.972713 -27.74403 0.16568728 11
41.151485 -27.780966 0.16641678 12
41.297947 -27.708542 0.15309672 11
41.945248 -27.703173 0.16492558 13
43.112228 -27.739693 0.19363038 13
45.270691 -27.704515 0.16377892 11
45.680683 -27.77422 0.16934533 11
57.980801 -27.702883 0.11533848 1
29.286613 -27.601229 0.14840956 8
29.679182 -27.674646 0.10455664 4
30.021412 -27.690575 0.1085573 1
30.319149 -27.645325 0.15362152 3
32.51675 -27.645811 0.14883824 1
32.931561 -27.629541 0.10632944 2
37.429623 -27.609776 0.11437551 12
37.687893 -27.649704 0.15576033 12
38.595715 -27.641754 0.14448094 13
39.675957 -27.641155 0.13765822 12
41.718498 -27.625717 0.18717048 13
42.221886 -27.610552 0.1829737 13
42.369022 -27.616661 0.19815561 13
42.747776 -27.610996 0.16801971 14
45.979557 -27.690512 0.18233609 11
46.170013 -27.692028 0.19615735 10
46.545074 -27.676115 0.17666765 11
46.742504 -27.680485 0.17909233 10
47.131245 -27.66123 0.17718445 12
47.705585 -27.640676 0.17442368 13
58.639008 -27.650179 0.1384556 2
59.335396 -27.602232 0.16467749 3
30.674353 -27.57979 0.13358982 3
31.410809 -27.549526 0.10518878 3
32.119144 -27.527872 0.14963122 4
36.555367 -27.590889 0.11293326 13
38.417545 -27.543924 0.13463309 14
38.873466 -27.536839 0.12569067 10
40.068092 -27.552988 0.17286296 11
40.37516 -27.506252 0.16514085 9
40.569809 -27.560736 0.14786948 12
41.042591 -27.525068 0.16480538 11
43.022182 -27.500416 0.17481162 2
43.211517 -27.554558 0.18726328 8
43.755711 -27.559042 0.16431825 11
45.007008 -27.5275 0.15959762 6
45.553116 -27.508623 0.16163237 11
48.000927 -27.526333 0.19908611 11
55.023151 -27.558306 0.10690798 1
55.664021 -27.520145 0.12272873 2
62.388355 -27.588953 0.19013463 1
29.268484 -27.420176 0.12882587 2
29.589201 -27.406134 0.14562248 4
29.943535 -27.438131 0.13713019 1
30.269432 -27.427822 0.1566848 3
31.716467 -27.480726 0.17049049 1
32.854389 -27.46772 0.14161034 4
37.60603 -27.413174 0.15111294 11
37.780407 -27.464312 0.14290442 12
38.100964 -27.466658 0.12088407 14
39.103523 -27.457378 0.17288227 10
39.287323 -27.478477 0.15298721 12
39.755287 -27.469955 0.14508839 12
40.866909 -27.49066 0.16300458 10
41.191242 -27.455048 0.14980048 12
41.828407 -27.442457 0.1648709 11
44.058899 -27.466015 0.17818303 1
44.516891 -27.497997 0.10083361 0
45.128605 -27.428669 0.16488962 13
45.844952 -27.420738 0.17713085 13
46.016781 -27.409401 0.199443 9
46.406216 -27.403906 0.17166455 12
46.594086 -27.401821 0.17806 10
31.70945 -27.314838 0.13358633 1
32.063797 -27.308992 0.14911057 1
36.908867 -27.360125 0.11563406 8
37.348213 -27.373526 0.1105997 10
38.470596 -27.368839 0.16311163 13
39.578365 -27.393618 0.13520673 12
39.96637 -27.303146 0.17128216 11
40.475445 -27.317398 0.14025137 13
41.610462 -27.372215 0.1830062 12
42.106876 -27.35224 0.18087098 11
42.250801 -27.356001 0.19720551 11
42.622841 -27.345629 0.16946226 12
43.512348 -27.396534 0.16131943 13
44.425457 -27.345287 0.11345956 0
46.984993 -27.384506 0.17377724 11
47.536461 -27.349169 0.17997845 13
56.160343 -27.31601 0.17274085 3
57.686703 -27.347412 0.13668855 2
58.407097 -27.328634 0.13402306 1
29.562988 -27.216881 0.13187233 2
30.289557 -27.29385 0.10139222 1
30.556086 -27.205534 0.17196827 3
32.794361 -27.245724 0.14152548 6
33.177498 -27.256411 0.14537439 6
33.583515 -27.285629 0.13202623 15
37.56385 -27.213362 0.12168961 11
37.702934 -27.233 0.13526262 14
38.028221 -27.239801 0.10918144 13
38.32531 -27.299938 0.13380425 12
38.78009 -27.292532 0.1238448 13
39.009235 -27.213184 0.17057036 12
39.19548 -27.236408 0.14857489 12
39.653942 -27.220558 0.14462832 13
40.280987 -27.263252 0.15807739 10
40.757366 -27.235863 0.16302183 10
40.932789 -27.270048 0.1642808 11
42.855042 -27.20426 0.197993 12
43.094067 -27.295771 0.18294239 10
43.634163 -27.29764 0.16033949 12
45.406479 -27.231201 0.16418014 12
47.864731 -27.257812 0.18802013 12
29.163572 -27.133629 0.18552424 3
37.263283 -27.135595 0.1095127 10
38.377438 -27.125357 0.16262032 13
39.479897 -27.146898 0.13378921 10
41.172195 -27.143499 0.19182107 10
41.501537 -27.119591 0.17990991 12
41.716423 -27.18718 0.16271687 14
42.143299 -27.105219 0.1909837 14
43.393547 -27.138023 0.15687251 12
43.909531 -27.185127 0.18769763 11
44.448627 -27.17235 0.17490064 13
45.00362 -27.166748 0.15803118 12
45.697258 -27.143509 0.17915112 10
45.874737 -27.136366 0.19794932 10
46.272507 -27.136927 0.16484396 12
46.456944 -27.132635 0.17226952 10
46.840858 -27.110949 0.17009647 12
54.715076 -27.192347 0.1453304 4
30.236158 -27.074522 0.10784075 0
30.589121 -27.08707 0.1053663 1
31.637701 -27.078547 0.14789084 3
32.728649 -27.019201 0.1460207 5
33.510799 -27.053276 0.13824452 11
38.240429 -27.063843 0.12888665 11
38.68034 -27.044325 0.12639111 10
39.875023 -27.063385 0.16412154 12
40.197273 -27.030212 0.14541359 9
40.371727 -27.06797 0.13857475 13
40.82209 -27.015919 0.16483845 12
41.990959 -27.094843 0.17986843 11
42.505745 -27.087904 0.16727486 12
42.972767 -27.035704 0.18130296 11
43.550217 -27.065565 0.13708645 1
44.235809 -27.036592 0.14288361 2
47.38797 -27.073326 0.17651372 13
51.172203 -27.019375 0.1909505 4
51.841011 -27.027496 0.1823737 6
56.738392 -27.039972 0.13314575 2
58.231216 -27.038532 0.1095702 1
29.517921 -26.928328 0.1164356 4
29.814432 -26.970539 0.17240693 2
31.191406 -26.910425 0.17772758 5
31.622246 -26.905487 0.11794414 2
35.938877 -26.996075 0.10775151 12
37.188282 -26.907993 0.10246724 11
37.450623 -26.951841 0.13781524 11
37.608376 -26.988068 0.13886572 13
37.916508 -26.980368 0.12235101 12
38.922417 -26.976803 0.16422194 12
39.100002 -26.992785 0.14684522 11
39.380566 -26.900999 0.13339989 12
39.548916 -26.96969 0.14688443 11
40.666882 -26.997898 0.15264562 8
40.975159 -26.950653 0.14641412 12
41.60355 -26.932802 0.16164096 13
42.748535 -26.95569 0.18923254 6
44.320885 -26.909622 0.17195643 12
44.745472 -26.99556 0.15317473 4
45.27401 -26.965492 0.16031668 12
47.71207 -26.980061 0.18546297 11
55.157486 -26.949701 0.19462802 11
29.801855 -26.800522 0.14598431 2
30.149948 -26.818607 0.14212535 2
30.858416 -26.846527 0.13328375 0
31.926735 -26.847095 0.16940159 9
32.322445 -26.885178 0.14261204 9
32.676842 -26.808697 0.14029054 4
33.447239 -26.831747 0.13807552 15
33.850269 -26.852743 0.12454144 16
38.149227 -26.823769 0.12835351 11
38.302666 -26.899168 0.15122874 12
38.60183 -26.815664 0.1163964 11
39.76593 -26.810598 0.16793233 11
41.383064 -26.861099 0.18274505 11
41.877045 -26.840595 0.17835359 12
42.017437 -26.841949 0.1954475 12
42.390671 -26.833309 0.16459195 11
43.267933 -26.87608 0.15667853 13
44.8536 -26.888735 0.16460033 11
45.563793 -26.877918 0.1747898 12
45.746971 -26.874908 0.19007349 11
46.125633 -26.862595 0.16521454 10
46.318859 -26.864468 0.16764477 10
46.698845 -26.840523 0.16611627 12
47.244717 -26.802681 0.17129326 12
29.45697 -26.777832 0.15121409 1
30.870882 -26.783062 0.10305265 0
31.171404 -26.733128 0.1528051 8
33.077206 -26.760368 0.10512576 3
37.352734 -26.705566 0.14468509 12
37.523815 -26.753447 0.1365892 11
37.825733 -26.74078 0.12287615 14
38.823647 -26.73185 0.1656056 13
39.00367 -26.749966 0.14612688 13
39.462662 -26.735823 0.13846686 11
40.078747 -26.770462 0.15359023 11
40.238735 -26.796589 0.15448406 11
40.541306 -26.73348 0.16300328 10
40.727665 -26.776258 0.1566249 12
43.376472 -26.768995 0.16203508 9
44.637405 -26.748114 0.13930774 2
47.573994 -26.713596 0.17674531 12
49.750057 -26.700512 0.18557128 13
56.496834 -26.716757 0.13920942 3
57.302525 -26.751953 0.10500015 1
57.946159 -26.791349 0.17215359 10
29.439865 -26.603298 0.12995793 3
30.46175 -26.631107 0.13266645 0
31.508381 -26.626324 0.16617495 11
31.893097 -26.655907 0.1527337 11
32.275963 -26.68054 0.13447034 5
33.375401 -26.603289 0.14431638 16
33.772358 -26.618896 0.13346979 14
37.101696 -26.671524 0.10330369 12
38.216091 -26.664248 0.1475725 11
39.280369 -26.655931 0.13403974 11
40.944756 -26.634457 0.19507399 12
41.278145 -26.614729 0.17854252 11
41.49268 -26.681551 0.16002305 11
41.788437 -26.607191 0.16335794 11
42.368488 -26.64995 0.11158603 0
42.620571 -26.692602 0.19266349 13
43.153248 -26.623785 0.15127793 13
43.649574 -26.656981 0.18851568 12
44.732803 -26.633047 0.15694416 12
45.125458 -26.690229 0.16527855 11
45.426361 -26.611237 0.17310649 12
45.612202 -26.610226 0.18636073 10
47.081154 -26.695063 0.102289 0
47.927181 -26.608227 0.16007705 3
49.163502 -26.63773 0.13183238 2
54.948139 -26.64394 0.19290343 10
30.10499 -26.535446 0.12292669 1
31.157871 -26.563936 0.12278204 3
32.255543 -26.504522 0.10644006 3
32.604652 -26.578348 0.15029325 5
34.167603 -26.589306 0.11576476 9
37.327267 -26.524055 0.10562796 9
37.443878 -26.524298 0.13180207 14
37.745049 -26.511381 0.11748952 12
38.059937 -26.586823 0.12709549 13
38.503139 -26.571392 0.11926 8
38.740723 -26.501627 0.15782352 9
38.909283 -26.510265 0.14472398 12
39.667236 -26.567854 0.16612978 11
39.973495 -26.523041 0.15455954 9
40.164513 -26.573942 0.13669796 12
40.457691 -26.503904 0.14969532 10
40.618084 -26.526117 0.15764275 12
41.91399 -26.59737 0.18814799 14
42.733341 -26.522772 0.17817986 11
45.987 -26.595587 0.16224052 12
46.167568 -26.589041 0.17023614 10
46.549728 -26.567038 0.16632517 13
47.140839 -26.559586 0.1478501 4
50.337383 -26.527151 0.12628838 1
50.960735 -26.527716 0.12444519 1
33.708775 -26.400761 0.13232809 14
36.155708 -26.425453 0.1105221 8
36.589722 -26.433538 0.10726978 13
37.014278 -26.435814 0.10511326 12
38.142487 -26.441742 0.13629247 11
39.187733 -26.418577 0.13063534 12
39.361534 -26.491215 0.13942078 13
40.761295 -26.454252 0.14398657 12
41.386734 -26.435631 0.15620548 14
42.503475 -26.439249 0.19083191 11
43.571941 -26.433033 0.16225035 2
44.525471 -26.499374 0.12801678 1
45.000225 -26.432878 0.15911958 12
46.894558 -26.484783 0.1560747 0
47.506615 -26.49469 0.13499829 4
55.57896 -26.423412 0.14169672 2
56.981266 -26.485914 0.18436182 14
57.731579 -26.48451 0.16408187 3
29.343334 -26.335911 0.17797536 5
30.043716 -26.388527 0.15571401 1
31.105848 -26.353504 0.12397582 3
31.510368 -26.397875 0.10183939 3
32.536568 -26.353788 0.15749294 5
32.920616 -26.368139 0.15392374 8
33.310268 -26.383062 0.14593643 15
34.067207 -26.336159 0.13951465 5
37.994591 -26.371658 0.11129107 8
39.573349 -26.330479 0.1619826 11
40.032555 -26.306742 0.15317611 11
41.169464 -26.366974 0.17701183 12
41.658218 -26.343636 0.17206173 10
41.80093 -26.347012 0.18672739 0
42.151993 -26.322474 0.16569361 12
43.022858 -26.361593 0.15490586 10
44.062664 -26.387106 0.16945896 12
44.589962 -26.363527 0.16125147 14
45.28801 -26.345587 0.17258407 12
45.467346 -26.340317 0.18839182 11
47.843376 -26.378967 0.1253909 0
48.983418 -26.347593 0.13836606 1
49.646698 -26.368534 0.1165043 1
30.058533 -26.253174 0.10529213 1
31.411785 -26.215397 0.15949522 7
31.789957 -26.238886 0.14807592 6
32.156433 -26.247309 0.1394152 9
36.080254 -26.200768 0.10825956 14
36.515961 -26.210817 0.10222679 11
37.2033 -26.257971 0.13008398 9
37.363136 -26.295849 0.12794559 8
38.814049 -26.271357 0.14431849 11
39.265186 -26.252008 0.13801472 14
39.870224 -26.278744 0.15489604 10
40.344646 -26.252581 0.15393309 10
40.516235 -26.283581 0.15475108 10
42.644794 -26.291561 0.16063319 2
43.126991 -26.252945 0.16194509 12
43.909405 -26.295578 0.10913255 1
44.418709 -26.255705 0.11463894 1
46.858101 -26.287628 0.10119902 0
50.119267 -26.215664 0.14589043 0
51.970379 -26.257421 0.1998073 11
54.05336 -26.256691 0.16122559 1
54.784397 -26.270983 0.13149074 1
31.081562 -26.174622 0.1029156 0
32.455368 -26.117264 0.17500491 13
32.860657 -26.153961 0.15361102 12
33.261925 -26.180973 0.13543193 14
33.649498 -26.188219 0.12835377 12
34.01701 -26.133303 0.12757576 3
37.8899 -26.124537 0.12057799 11
38.026676 -26.185034 0.15177341 14
39.091465 -26.179726 0.12990861 12
40.731071 -26.142437 0.1927558 12
41.054131 -26.115665 0.17981184 11
41.277027 -26.188345 0.15505834 13
42.379597 -26.182461 0.19329755 12
42.90641 -26.111151 0.15167381 13
43.406868 -26.147791 0.18281423 11
44.004387 -26.178112 0.13214406 1
44.470394 -26.111858 0.15425692 12
44.871063 -26.174381 0.15561232 12
45.495884 -26.189362 0.10388061 2
47.73061 -26.132374 0.10497699 1
49.50576 -26.104494 0.10383131 2
51.35535 -26.191994 0.15172295 2
30.665997 -26.095558 0.15152651 2
32.095531 -26.031618 0.14317593 16
37.157372 -26.06098 0.10482164 14
37.273411 -26.061073 0.13026311 13
37.592278 -26.064026 0.1025199 12
38.723587 -26.037825 0.14148231 13
39.168003 -26.013605 0.1376051 14
39.470142 -26.08709 0.16387603 10
39.808796 -26.06908 0.13103354 9
39.948151 -26.078823 0.14232534 14
40.23933 -26.008867 0.15423167 10
40.41354 -26.04187 0.15287091 10
41.541676 -26.092079 0.17375124 11
41.678226 -26.090979 0.19125515 13
42.066589 -26.094574 0.14842398 11
42.49036 -26.013596 0.17943743 12
43.009846 -26.002787 0.15876883 11
46.693748 -26.00795 0.10902992 1
48.254265 -26.089396 0.13123076 5
48.846653 -26.086176 0.12575011 3
52.599632 -26.041018 0.11688188 1
54.526279 -26.036701 0.1937279 10
29.606228 -25.962584 0.16614686 0
31.380671 -25.954639 0.12201596 2
32.407902 -25.916777 0.16707325 17
32.79995 -25.940392 0.1541464 11
33.180195 -25.947018 0.14995626 15
34.336826 -25.916708 0.12828563 1
36.850536 -25.97846 0.10281958 7
37.817482 -25.906057 0.11003334 8
37.973583 -25.982473 0.12851527 12
38.997181 -25.943943 0.12846808 12
40.561272 -25.974646 0.13575685 12
41.160652 -25.937542 0.15824859 11
42.260731 -25.930967 0.19363841 13
43.69175 -25.974833 0.15638588 3
44.753185 -25.925175 0.14698175 7
50.642944 -25.978239 0.1074857 0
51.240074 -25.944 0.12276813 1
29.599535 -25.80492 0.13521436 0
29.966536 -25.84693 0.10779329 0
30.284157 -25.898884 0.14495163 9
30.62513 -25.899698 0.14561494 10
31.710587 -25.852013 0.12562025 8
32.038765 -25.821594 0.14399475 13
33.930275 -25.896536 0.14226675 5
37.204739 -25.845734 0.11949064 9
38.487156 -25.815216 0.14005755 3
38.629513 -25.802782 0.14132427 12
39.371765 -25.849056 0.16340169 11
39.840111 -25.833704 0.14586674 12
40.955334 -25.878487 0.17377514 11
41.435951 -25.850174 0.16995132 11
41.572208 -25.848988 0.18707132 13
41.921543 -25.824057 0.1646509 10
42.786121 -25.859476 0.15110959 12
43.28569 -25.895662 0.18079968 13
43.812874 -25.876968 0.16514836 14
46.226654 -25.838232 0.11005764 3
47.529217 -25.831043 0.12745777 1
48.082939 -25.807854 0.13740014 2
55.802811 -25.871065 0.19477242 10
30.938196 -25.71793 0.13832057 3
31.332701 -25.753134 0.11899095 1
32.369629 -25.726818 0.15232301 7
32.763454 -25.752363 0.13667981 5
33.528706 -25.764894 0.12291167 9
36.355347 -25.757935 0.10195097 12
37.023487 -25.789682 0.13668878 14
37.861618 -25.732063 0.14256272 7
38.913349 -25.717997 0.12114953 14
39.078465 -25.782791 0.1330647 13
39.666836 -25.797188 0.1552694 9
40.127426 -25.761562 0.15891322 9
40.30426 -25.79656 0.15534525 11
41.060879 -25.700787 0.15258405 11
42.176483 -25.706192 0.17556223 2
42.37347 -25.764717 0.17846774 12
42.894821 -25.755663 0.15504815 11
46.522221 -25.725464 0.12116656 1
54.330372 -25.744181 0.18952863 11
30.2341 -25.693544 0.14834808 13
32.020519 -25.652403 0.11506369 2
34.261097 -25.692585 0.13370617 6
37.132587 -25.628683 0.11132976 2
37.724953 -25.672094 0.11258447 11
39.272564 -25.611839 0.16391717 11
39.76268 -25.613953 0.13183339 11
40.534222 -25.669292 0.18290947 11
40.847004 -25.635532 0.17369477 11
41.320606 -25.602592 0.17211215 12
41.462418 -25.605665 0.18554524 14
42.661983 -25.606606 0.15323897 12
43.157646 -25.64024 0.18306106 13
44.310608 -25.66728 0.10089186 3
45.134502 -25.608709 0.14722021 1
50.466534 -25.695736 0.10798695 3
51.718365 -25.65904 0.10839164 1
52.263195 -25.66872 0.17905907 5
29.507431 -25.550919 0.17818299 2
32.313351 -25.519808 0.15160383 3
32.668797 -25.507624 0.16343184 12
33.074829 -25.540689 0.13676167 5
33.467205 -25.554121 0.12144177 5
36.956944 -25.577629 0.1255127 10
38.988129 -25.552723 0.12947065 13
39.612415 -25.59557 0.12811849 11
40.046295 -25.539495 0.14610898 10
40.19989 -25.556547 0.15549877 11
41.816818 -25.584831 0.15917127 12
42.258694 -25.51889 0.17693214 10
42.767002 -25.500967 0.1588259 11
43.518131 -25.522408 0.11496696 1
46.095619 -25.582813 0.10403069 1
46.632885 -25.541134 0.10500835 4
47.430355 -25.596283 0.10176177 1
48.538708 -25.546942 0.11865089 2
55.594116 -25.57308 0.19187659 10
29.846161 -25.414358 0.13523565 1
31.222029 -25.412598 0.14596912 2
31.582237 -25.419065 0.14270726 1
31.937784 -25.418341 0.13659596 8
33.831371 -25.498528 0.1187475 2
34.207893 -25.490971 0.12337799 4
37.048714 -25.403023 0.11112323 8
37.645454 -25.450375 0.10733315 11
38.808983 -25.476995 0.12679058 12
40.346378 -25.489496 0.13822185 12
40.951542 -25.458303 0.15288638 13
42.04113 -25.445738 0.18611968 11
43.671295 -25.447714 0.10616045 1
46.315506 -25.422258 0.151407 4
46.910576 -25.422318 0.13065748 3
52.22324 -25.465029 0.11596462 2
54.123512 -25.447666 0.19073176 11
32.243935 -25.300928 0.16125123 6
32.650932 -25.340425 0.1323193 5
34.569305 -25.385283 0.12194801 14
36.884193 -25.361536 0.11872027 8
38.492344 -25.37793 0.11099175 4
38.882839 -25.312216 0.13542877 12
39.178226 -25.379902 0.16200332 12
39.474411 -25.330063 0.15114811 9
39.658722 -25.374914 0.13396738 11
40.109123 -25.328358 0.14822143 13
40.746567 -25.399984 0.16963895 11
41.216137 -25.364567 0.16870135 11
41.342987 -25.356745 0.18999629 13
41.690613 -25.331423 0.16619721 12
42.548912 -25.363163 0.14996393 13
43.04073 -25.394209 0.17999633 12
44.884727 -25.399525 0.10059448 0
45.041325 -25.379398 0.12562497 2
45.394089 -25.350981 0.10724561 2
47.28043 -25.33086 0.10116507 1
48.988281 -25.352234 0.1512228 12
49.586807 -25.366346 0.1554812 3
50.906521 -25.392801 0.11212039 2
29.474844 -25.219162 0.13347563 0
30.129488 -25.281958 0.15952323 8
31.184326 -25.225178 0.13526832 6
31.883783 -25.215015 0.13598901 10
33.02557 -25.268013 0.10525333 3
33.729439 -25.251743 0.14552262 2
34.130646 -25.268169 0.13055165 10
37.712891 -25.297903 0.12472497 6
38.31673 -25.285412 0.10290139 2
38.723568 -25.252541 0.12134877 12
39.929848 -25.291683 0.15450668 10
40.847214 -25.22102 0.15086836 11
42.14901 -25.278208 0.17317332 11
43.396992 -25.274313 0.11325761 2
46.490467 -25.280436 0.10349702 2
47.800575 -25.28734 0.12362241 2
48.373833 -25.273207 0.12133511 3
55.427959 -25.299044 0.17305054 4
30.4501 -25.115934 0.13332853 8
30.780663 -25.105473 0.14646941 1
31.512049 -25.198553 0.15643078 11
32.20858 -25.117403 0.14491707 6
32.589832 -25.131615 0.13420878 4
34.477558 -25.150537 0.13786799 7
36.797001 -25.134577 0.12171635 4
36.966808 -25.180391 0.11005419 14
39.088791 -25.153191 0.15760754 11
39.562542 -25.14333 0.13198294 12
40.040691 -25.118401 0.12830803 12
40.359043 -25.138937 0.13226481 255
40.633667 -25.156567 0.17325802 12
41.107914 -25.125227 0.16794693 11
41.240337 -25.121635 0.18556331 12
41.922672 -25.199099 0.18798487 12
42.983047 -25.190887 0.1456728 1
43.519299 -25.179029 0.12037542 0
44.938152 -25.144722 0.10964654 0
46.185596 -25.170229 0.14470141 3
50.123741 -25.141933 0.10703217 0
50.714005 -25.105093 0.1193976 3
52.728176 -25.171686 0.10863939 1
53.356857 -25.138317 0.11939035 1
53.952179 -25.171972 0.17833386 9
56.793655 -25.141857 0.12961124 2
29.778694 -25.045965 0.11823386 3
30.084335 -25.085976 0.15938257 5
31.472879 -25.011219 0.14577536 3
31.846344 -25.029638 0.12263543 5
33.662724 -25.039703 0.1470717 8
34.034439 -25.02928 0.15170436 21
37.631836 -25.07725 0.1206267 13
38.643051 -25.033262 0.11333876 12
38.796577 -25.088173 0.1302938 14
39.372707 -25.094378 0.15310334 10
39.858685 -25.079851 0.13675953 10
40.142639 -25.018702 0.13630566 12
41.587177 -25.096064 0.16110571 11
42.089058 -25.074297 0.14253424 1
42.532688 -25.011292 0.15665866 12
47.047817 -25.015825 0.14120503 3
48.767345 -25.046696 0.17828126 11
49.425587 -25.096441 0.15297198 2
30.401073 -24.917425 0.13509788 11
30.788357 -24.967146 0.10021155 2
31.095106 -24.985424 0.16632032 10
32.89122 -24.915728 0.13807949 9
33.257866 -24.906042 0.13716738 10
34.440067 -24.966614 0.11573353 4
36.725494 -24.922121 0.11488425 13
36.884136 -24.958473 0.10989052 13
37.473068 -24.999924 0.10658375 13
38.998577 -24.927217 0.15413733 12
39.456955 -24.905956 0.13610074 13
40.546188 -24.933464 0.16276863 13
40.742065 -24.984566 0.14984676 12
41.806332 -24.955494 0.18925829 12
42.852489 -24.938118 0.15103272 4
46.114063 -24.956667 0.1097478 0
46.303444 -24.993189 0.12464035 5
48.204842 -24.998745 0.12674169 3
55.950623 -24.908451 0.11112355 2
56.572075 -24.936575 0.17259142 6
30.045565 -24.898144 0.15402445 7
31.411018 -24.801929 0.15338768 11
32.500366 -24.896442 0.15799697 9
33.590111 -24.823484 0.1532367 12
33.984245 -24.83428 0.14013401 9
37.538887 -24.848259 0.12450111 13
38.107105 -24.885504 0.14861915 11
38.706707 -24.862631 0.12780613 12
39.27879 -24.866114 0.1508861 10
39.726166 -24.822849 0.15570122 10
39.910782 -24.863338 0.14496364 12
40.067123 -24.805107 0.12065201 11
41.001808 -24.888878 0.16652903 11
41.133942 -24.88521 0.1837728 13
