29.1772 29.1631 29.1503 29.143 29.1331 29.1067 29.1085 29.0781 29.0621 29.0547 29.0385 29.0311 29.0236 29.0026 28.9886 28.9813 28.9653 28.9585 28.9517 28.9282 28.9124 28.8904 28.8849 28.8801 28.8698 28.8614 28.852 28.8362 28.8212 28.8044 28.8006 28.8134 28.7773 28.7666 28.7526 28.7418 28.7323 28.7246 28.7024 28.7115 28.6812 28.6832 28.669 28.6577 28.6436 28.6394 28.6218 28.599 28.6223 28.5973 28.5917 28.5748 28.5618 28.5521 28.546 28.5399 28.5266 28.5235 28.511 28.5134 28.4823 28.4891 28.4861 28.4558 28.4474 28.4422 28.4319 28.4293 28.4121 28.4182 28.4043 28.3936 28.387 28.3843 28.3834 28.3664 28.3498 28.34 28.3298 28.3239 28.3077 28.2998 28.2972 28.296 28.2836 28.2912 28.2935 28.2977 28.2932 28.2946 28.3012 28.2839 28.2844 28.2732 28.2482 28.2391 28.2585 28.2419 28.221 28.2181 28.2199 28.2161 28.2088 28.2034 28.2026 28.1851 28.1856 28.1781 28.1843 28.1784 28.1706 28.1795 28.1647 28.1597 28.1622 28.1586 28.1414 28.1397 28.1438 28.1344 28.1381 28.1481 28.1272 28.1273 28.1215 28.1209 28.1245 28.131 28.1143 28.1102 28.1358 28.114 28.1111 28.1051 28.1035 28.096 28.112 28.1057 28.0925 28.1005 28.1027 28.1049 28.099 28.1005 28.0957 28.1043 28.086 28.0815 28.0885 28.087 28.0913 28.1011 28.1003 28.116 28.0882 28.0972 28.094 28.1114 28.0955 28.0876 28.0889 28.0907 28.0789 28.0821 28.095 28.1 28.0848 28.0924 28.0924 28.0982 28.087 28.1021 28.089 28.1053 28.11 28.1014 28.1026 28.0997 28.1143 28.1251 28.1136 28.1159 28.0985 28.1248 28.1091 28.1227 28.1291 28.1145 28.1219 28.1277 28.1301 28.1504 28.1533 28.1428 28.1353 28.1466 28.1676 28.1539 28.1612 28.1703 28.1578 28.1711 28.1604 28.1855 28.1756 28.1868 28.1936 28.2033 28.1912 28.2156 28.2048 28.2211 28.2189 28.218 28.2094 28.237 28.2297 28.2593 28.2465 28.2502 28.2554 28.2723 28.2655 28.2685 28.2683 28.2836 28.2828 28.2933 28.294 28.2799 28.2999 28.296 28.3181 28.3069 28.3157 28.3139 28.3331 28.3477 28.3662 28.3709 28.3902 28.3885 28.409 28.4231 28.4376 28.4184 28.4391 28.4422 28.4419 28.4457 28.4832 28.4707 28.4869 28.5005 28.4884 28.5158 28.5253 28.5207 28.5304 28.5379 28.5487 28.5636 28.5774 28.5837 28.5967 28.594 28.6072 28.634 28.6312 28.6429 28.6417 28.6503 28.6646 28.6808 28.6852 28.6727 28.7123 28.7247 28.725 28.7315 28.74 28.755 28.7486 28.7769 28.8016 28.8009 28.8052 28.8348 28.8454 28.8456 28.855 28.8686 28.8707 28.8836 28.8895 28.9352 28.9383 28.9298 28.9467 28.9303 28.9497 28.9791 29.0069 29.0216 29.0313 29.0314 29.0599 29.0631 29.0879 29.0803 29.0972 29.1206 29.0941 29.1261 29.1669 29.168 29.2011 29.1825 29.2189 29.2267 29.2372 29.2753 29.2644 29.2571 29.3071 29.3204 29.3275 29.3341 29.3766 29.3574 29.3972 29.4078 29.3914 29.4443 29.4576 29.4733 29.4939 29.4833 29.5056 29.5249 29.5457 29.559 29.5982 29.5883 29.5905 29.6465 29.6324 29.6791 29.688 29.7125 29.7297 29.7343 29.7483 29.7396 29.7902 29.7841 29.7806 29.8253 29.8613 29.8747 29.9049 29.8714 29.9054 29.9451 30.014 29.9921 30.0064 30.0115 30.0394 30.0926 30.0682 30.1154 30.1205 30.1604 30.1483 30.1962 30.1955 30.2364 30.2619 30.2751 30.2824 30.3093 30.345 30.3377 30.3854 30.3761 30.3872 30.4458 30.427 30.4843 30.5031 30.5265 30.5594 30.569 30.5989 30.6259 30.6471 30.658 30.6984 30.736 30.7274 30.7565 30.7581 30.7685 30.8314 30.8191 30.8182 30.7955 30.7583 30.7044 30.7223 30.7807 30.8005 23.8543 23.8001 23.7676 30.8821 30.9067 30.9341 30.9321 30.9822 30.9643 31.0125 31.0264 31.0444 31.0536 31.0757 31.0976 31.1095 31.1517 31.1491 31.1587 31.1823 31.2188 31.2233 22.1963 22.1809 22.1674 22.1417 22.015 21.7445 21.8004 21.5802 31.4923 31.4789 31.5374 31.5514 31.5921 31.6348 31.6646
29.1108 29.1033 29.1099 29.0814 29.0826 29.0615 29.0356 29.0226 29.0073 28.9895 28.9777 28.9803 28.9525 28.9454 28.9369 28.911 28.9068 28.9014 28.8782 28.8649 28.86 28.8412 28.8266 28.8185 28.8171 28.793 28.7982 28.772 28.7534 28.7492 28.7429 28.7309 28.7303 28.7198 28.7063 28.687 28.6705 28.7006 28.6644 28.6399 28.633 28.6247 28.6092 28.6005 28.5804 28.5895 28.5763 28.5623 28.5509 28.5442 28.5308 28.5335 28.5181 28.503 28.4798 28.4828 28.4804 28.4805 28.4528 28.44 28.4408 28.4171 28.4194 28.4006 28.3951 28.385 28.3869 28.3632 28.36 28.3545 28.3587 28.332 28.3365 28.3113 28.302 28.2863 28.2779 28.2789 28.2764 28.2547 28.2472 28.2505 28.253 28.2577 28.275 28.2644 28.2593 28.2523 28.2472 28.2363 28.2365 28.2147 28.1892 28.1949 28.2004 28.1917 28.1898 28.1662 28.163 28.1781 28.1524 28.1593 28.1459 28.1438 28.1557 28.1372 28.1335 28.1256 28.1269 28.1276 28.1088 28.1139 28.108 28.1128 28.114 28.1074 28.1029 28.0995 28.0829 28.1027 28.0948 28.0867 28.08 28.0805 28.0894 28.0692 28.0717 28.0773 28.0888 28.0562 28.0744 28.0537 28.0545 28.0699 28.057 28.056 28.0506 28.0614 28.0568 28.0512 28.0516 28.0617 28.0368 28.0422 28.0508 28.0479 28.0411 28.0367 28.0421 28.0344 28.0423 28.0415 28.0416 28.0422 28.0352 28.0425 28.0442 28.0325 28.0369 28.0238 28.0516 28.0346 28.0329 28.0449 28.0404 28.0518 28.0365 28.0333 28.0351 28.0512 28.0351 28.0599 28.0391 28.0593 28.044 28.0389 28.043 28.0824 28.0701 28.0466 28.0595 28.0726 28.0712 28.066 28.066 28.0774 28.0649 28.064 28.0667 28.0759 28.0798 28.0736 28.0764 28.0791 28.0913 28.1096 28.0962 28.1197 28.1012 28.1055 28.1097 28.1155 28.1169 28.1376 28.1131 28.1209 28.1339 28.1435 28.1606 28.1411 28.1528 28.1619 28.156 28.1645 28.1757 28.1752 28.1902 28.2067 28.1895 28.2038 28.2209 28.2074 28.2225 28.2188 28.2264 28.2232 28.237 28.2237 28.2177 28.2297 28.2383 28.2492 28.2449 28.2554 28.2619 28.2796 28.2877 28.3083 28.3281 28.3279 28.3474 28.3481 28.377 28.3634 28.3907 28.3792 28.3823 28.3847 28.41 28.3962 28.4172 28.4237 28.4316 28.4288 28.4573 28.449 28.4718 28.4565 28.4736 28.5064 28.4947 28.5085 28.5176 28.5286 28.5344 28.5436 28.5627 28.583 28.5793 28.5885 28.5787 28.6113 28.6034 28.615 28.6336 28.63 28.6486 28.6501 28.6628 28.6673 28.6838 28.7084 28.6934 28.7385 28.7382 28.7307 28.764 28.7855 28.7935 28.7956 28.8031 28.8009 28.8342 28.824 28.8616 28.8654 28.8836 28.8921 28.8989 28.8767 28.9058 28.9112 28.9536 28.9618 28.9686 28.9762 28.9852 28.9997 29.0113 29.0116 29.0445 29.083 29.068 29.092 29.0844 29.1225 29.1228 29.1423 29.1475 29.1682 29.1784 29.2099 29.2155 29.2162 29.2082 29.2556 29.2729 29.2866 29.3048 29.3241 29.3226 29.3448 29.3739 29.3363 29.362 29.4118 29.4349 29.4325 29.4549 29.4743 29.4961 29.5159 29.5136 29.5569 29.5673 29.5803 29.5921 29.5951 29.6431 29.6407 29.699 29.6786 29.6952 29.6958 29.727 29.7179 29.7593 29.7737 29.7888 29.7921 29.8268 29.8582 29.8633 29.8588 29.9094 29.9584 29.9615 29.964 30.0236 30.0101 30.0235 30.0342 30.0532 30.0927 30.1095 30.1147 30.1313 30.1528 30.1935 30.2244 30.2303 30.2392 30.2815 30.2901 30.3061 30.3415 30.3594 30.3849 30.3963 30.4281 30.4323 30.4402 30.4742 30.4965 30.5182 30.5465 30.5765 30.5941 30.6074 30.6261 30.659 30.6734 30.7183 30.7181 30.7478 30.7983 30.773 30.7717 30.7511 30.7008 30.6716 30.7115 30.6994 23.8746 23.8227 30.7576 30.8541 30.8489 30.8635 30.8748 30.8821 30.953 30.9406 30.9805 30.9784 30.9955 31.0374 31.0361 31.0813 31.0847 31.0973 31.0884 31.1404 31.1716 22.1174 22.1933 22.1913 22.1906 22.151 22.0502 21.7606 21.56 21.579 31.4051 31.4617 31.4532 31.4895 31.5407 31.5819 31.6006
29.0607 29.0582 29.0278 29.0252 29.01 29.0262 28.9996 28.9683 28.9487 28.9419 28.9276 28.9142 28.9033 28.8959 28.8886 28.8615 28.8542 28.831 28.827 28.8067 28.8087 28.7862 28.7846 28.7636 28.7503 28.7462 28.7266 28.7248 28.7113 28.7022 28.682 28.671 28.6649 28.6524 28.6295 28.6241 28.6275 28.6217 28.5986 28.5906 28.5833 28.5613 28.5602 28.5456 28.5475 28.5283 28.5233 28.497 28.4915 28.4882 28.4787 28.4664 28.4487 28.4286 28.4354 28.4194 28.4126 28.4015 28.4019 28.3867 28.4064 28.3626 28.3656 28.3608 28.3405 28.3427 28.317 28.322 28.324 28.2932 28.2887 28.2804 28.2732 28.254 28.2466 28.2364 28.2237 28.2188 28.2155 28.2222 28.2219 28.2259 28.2293 28.2168 28.2201 28.2235 28.2054 28.2029 28.1926 28.1661 28.1616 28.1541 28.1373 28.1374 28.1327 28.1245 28.1213 28.1213 28.1188 28.1176 28.1137 28.1109 28.1012 28.105 28.0874 28.087 28.0837 28.0787 28.0687 28.0767 28.0595 28.0613 28.0543 28.0623 28.0487 28.073 28.0367 28.0443 28.0371 28.0255 28.0278 28.0207 28.0483 28.0188 28.0162 28.0216 28.0258 28.0104 28.0089 28.008 28.0063 28.0073 28.0228 28.0072 28.007 28.0217 28.0074 28.019 28.005 27.993 27.9902 27.9876 27.9988 27.9922 27.9868 27.9986 27.9856 27.981 27.9868 27.9824 28.0007 27.9834 27.9934 27.9703 27.9786 27.9854 27.9716 27.9843 27.9758 27.9801 27.9856 27.975 27.9845 27.9826 27.9845 27.989 27.9899 27.9937 27.9849 27.9982 27.9818 27.9956 27.9845 27.9921 27.9905 27.9897 27.9975 28.0013 28.0136 28.0029 27.9984 28.0226 28.0057 28.0111 28.0088 28.0175 28.0189 28.0187 28.0153 28.0245 28.0349 28.0366 28.0337 28.0308 28.0278 28.036 28.0393 28.0503 28.0601 28.0552 28.0632 28.0662 28.0662 28.0631 28.0725 28.0781 28.0786 28.1063 28.1043 28.0894 28.0975 28.1114 28.1085 28.1067 28.1174 28.1399 28.1301 28.1384 28.1392 28.1487 28.155 28.1512 28.1509 28.1396 28.1588 28.1396 28.1569 28.1557 28.1659 28.1687 28.1989 28.2202 28.2118 28.2256 28.2295 28.2564 28.2618 28.2478 28.2852 28.2688 28.2861 28.3068 28.2991 28.3033 28.3066 28.3068 28.3206 28.3392 28.3289 28.3613 28.3821 28.3745 28.3876 28.3801 28.3977 28.393 28.3984 28.4335 28.4212 28.4312 28.4517 28.4629 28.4642 28.4684 28.4854 28.4881 28.5255 28.5447 28.5125 28.5147 28.545 28.5581 28.5633 28.58 28.5868 28.5899 28.5739 28.629 28.6129 28.6325 28.644 28.6537 28.6496 28.6683 28.6805 28.6854 28.6993 28.6979 28.7425 28.7485 28.7645 28.758 28.7713 28.7666 28.7871 28.7944 28.8052 28.8162 28.8529 28.8462 28.8487 28.8679 28.8825 28.8823 28.904 28.9341 28.9231 28.9526 28.9591 28.9653 29.0003 28.9915 29.0103 29.019 29.0374 29.0541 29.0886 29.0891 29.0854 29.0884 29.132 29.1261 29.1251 29.1639 29.1772 29.1763 29.2072 29.247 29.2542 29.254 29.2567 29.2707 29.2925 29.3166 29.3305 29.3507 29.3632 29.3977 29.3689 29.4151 29.4346 29.4298 29.4619 29.4785 29.4964 29.5142 29.554 29.5477 29.5882 29.5827 29.5955 29.6382 29.6365 29.6612 29.6641 29.6494 29.6701 29.6975 29.7277 29.7575 29.7734 29.7606 29.8201 29.8291 29.8348 29.8689 29.9204 29.9177 29.9138 29.9531 29.9565 29.9737 29.9917 30.0239 30.0466 30.0458 30.071 30.1292 30.1165 30.1287 30.1645 30.1965 30.2022 30.2374 30.2488 30.2712 30.2979 30.297 30.3149 30.3607 30.3995 30.4044 30.4169 30.4412 30.4848 30.4584 30.5165 30.5484 30.5727 30.5749 30.5935 30.6454 30.6743 30.6678 30.6928 30.685 30.7544 30.7536 30.7234 30.7196 30.6747 30.635 23.942 23.8926 23.8482 30.7092 30.7487 30.7811 30.787 30.8081 30.832 30.8672 30.9102 30.9129 30.9414 30.9322 30.9737 30.9965 30.9875 31.0301 21.7097 30.9978 31.0506 21.9586 22.1254 22.1762 22.1874 22.1782 22.1574 31.1713 22.0698 21.6987 21.5931 31.3056 31.4113 31.4216 31.4455 31.4771 31.4903 31.4973
28.9916 28.9943 28.9784 28.97 28.9602 28.9374 28.9194 28.9136 28.9083 28.8791 28.8712 28.8619 28.858 28.8273 28.8126 28.8012 28.7802 28.7893 28.7773 28.7661 28.7517 28.7404 28.7475 28.7249 28.6956 28.6862 28.6807 28.6576 28.6426 28.6413 28.6335 28.6101 28.6198 28.6039 28.5977 28.5829 28.5646 28.5543 28.5465 28.5341 28.5247 28.5224 28.4792 28.4974 28.4803 28.4675 28.4575 28.4479 28.4352 28.4261 28.4165 28.4109 28.4076 28.3915 28.3635 28.369 28.3598 28.3524 28.3597 28.3369 28.33 28.3151 28.2998 28.3096 28.2854 28.2917 28.2807 28.254 28.245 28.2292 28.2204 28.2131 28.2099 28.2056 28.1947 28.1891 28.1929 28.1834 28.1924 28.2048 28.1809 28.1893 28.1733 28.1652 28.1643 28.1496 28.1389 28.1202 28.1171 28.1278 28.1063 28.0879 28.0883 28.0776 28.0875 28.0751 28.0745 28.0658 28.0586 28.0678 28.0511 28.0389 28.0544 28.0411 28.0446 28.049 28.055 28.0318 28.0234 28.0169 28.0129 28.0135 28.0035 28.0086 28.0023 28.0041 27.9924 27.9904 27.9938 28.0102 27.985 27.9973 27.9717 27.9659 27.971 27.9632 27.9692 27.9555 27.9576 27.9661 27.9571 27.9601 27.9496 27.9675 27.9446 27.9487 27.9591 27.9588 27.9587 27.9606 27.9527 27.9451 27.9453 27.9451 27.9511 27.9313 27.935 27.9223 27.9438 27.9424 27.9368 27.9343 27.9367 27.9304 27.9289 27.9483 27.9406 27.9257 27.9218 27.9297 27.9505 27.9299 27.9428 27.9373 27.9306 27.9351 27.9392 27.9562 27.939 27.942 27.939 27.9335 27.9426 27.9308 27.9422 27.9443 27.9615 27.9529 27.9601 27.9532 27.9497 27.9564 27.9565 27.966 27.9681 27.9695 27.9753 27.9671 27.9653 27.9756 27.9797 27.9866 27.9843 27.9951 28.0029 27.9823 27.9895 28.0081 27.9997 28.0029 28.0104 27.9934 28.0188 28.0207 28.015 28.0436 28.04 28.0428 28.0486 28.0453 28.0542 28.0642 28.0817 28.0643 28.0819 28.0759 28.0863 28.0858 28.0857 28.1008 28.0819 28.088 28.0806 28.0839 28.0953 28.1022 28.101 28.1096 28.1215 28.1286 28.1617 28.1762 28.1937 28.1926 28.1846 28.2076 28.2076 28.2108 28.2128 28.2091 28.2276 28.2366 28.2389 28.2422 28.2465 28.2624 28.2745 28.2919 28.3135 28.3091 28.3143 28.3124 28.3108 28.3361 28.3348 28.3479 28.3454 28.3481 28.3781 28.3792 28.3797 28.4026 28.4068 28.4213 28.4266 28.4255 28.4291 28.4434 28.4603 28.4547 28.479 28.4866 28.5086 28.4984 28.5266 28.5205 28.5311 28.5177 28.5765 28.558 28.581 28.6035 28.6059 28.6114 28.6287 28.6395 28.6469 28.6576 28.6598 28.6754 28.6853 28.6945 28.6955 28.7338 28.7254 28.75 28.7607 28.7601 28.7938 28.81 28.8181 28.8268 28.8033 28.827 28.8416 28.852 28.8905 28.8984 28.9012 28.9297 28.9444 28.9489 28.9541 28.9719 28.9854 29.0087 29.0032 29.0315 29.0496 29.0648 29.0589 29.0887 29.1029 29.1103 29.1274 29.1184 29.1666 29.1511 29.1946 29.1887 29.2124 29.2301 29.2428 29.261 29.2723 29.2982 29.3117 29.3154 29.318 29.3705 29.3895 29.3922 29.3956 29.4289 29.4344 29.4606 29.4468 29.5077 29.5202 29.511 29.5525 29.5553 29.5918 29.5986 29.615 29.627 29.6341 29.6009 29.6481 29.68 29.7211 29.7336 29.7461 29.7491 29.7885 29.793 29.8201 29.8767 29.8962 29.9031 29.9137 29.9148 29.9311 29.9682 29.9601 30.0124 30.0111 30.0371 30.0534 30.0738 30.1153 30.1239 30.1426 30.1552 30.1746 30.2045 30.2456 30.2765 30.2579 30.3092 30.3166 30.322 30.3824 30.3994 30.4043 30.4228 30.4432 30.4559 30.4906 30.5475 30.5583 30.5512 30.605 30.615 30.6477 30.6452 30.6695 30.6862 30.7178 30.7018 30.68 30.6248 23.9478 23.898 23.8755 30.6827 30.7272 30.7102 30.7474 30.7407 21.9843 22.0518 22.0692 30.8467 30.8636 30.858 30.8935 30.8958 30.9465 30.9679 30.9476 30.9708 31.0016 30.9591 22.1172 22.1834 22.1865 22.1867 31.1085 31.1523 31.1604 21.5869 31.2455 21.5642 31.3232 31.3347 31.3669 31.4008 31.4566 21.4366
28.9514 28.9359 28.9521 28.9084 28.8973 28.8747 28.8743 28.8617 28.8452 28.8252 28.8315 28.8101 28.7921 28.7798 28.7493 28.7545 28.739 28.7341 28.7143 28.6959 28.6826 28.6817 28.6716 28.6598 28.6413 28.6329 28.6285 28.6117 28.6009 28.5959 28.5797 28.5548 28.5432 28.5427 28.5257 28.5263 28.5102 28.4944 28.4977 28.482 28.4604 28.4621 28.4466 28.4311 28.4366 28.4095 28.414 28.4076 28.3835 28.3811 28.3688 28.3572 28.3363 28.3459 28.3258 28.3161 28.3428 28.2805 28.2978 28.2814 28.2665 28.2718 28.2425 28.2446 28.2211 28.2108 28.2118 28.1953 28.1933 28.1683 28.1649 28.1603 28.1582 28.1545 28.1546 28.16 28.1579 28.1603 28.1537 28.1521 28.1485 28.1419 28.1192 28.1006 28.0871 28.084 28.0751 28.0673 28.0549 28.0616 28.0505 28.0479 28.04 28.027 28.0392 28.0303 28.0233 28.0105 28.0307 28.0112 28.0032 27.9923 27.9873 27.9806 27.9929 27.981 27.9811 27.9742 27.9694 27.9725 27.9798 27.9659 27.9525 27.9506 27.9578 27.9474 27.9336 27.9364 27.9432 27.9382 27.9302 27.9421 27.9226 27.9194 27.9291 27.9287 27.9089 27.9096 27.9064 27.903 27.9239 27.9101 27.9037 27.8988 27.9027 27.9 27.8958 27.9127 27.9075 27.9046 27.905 27.9029 27.8918 27.8934 27.8828 27.8895 27.8899 27.9035 27.8745 27.8913 27.8686 27.8751 27.8701 27.8721 27.8831 27.9 27.874 27.8775 27.8752 27.8839 27.8768 27.8855 27.8791 27.8852 27.8827 27.8713 27.8773 27.8915 27.8788 27.8759 27.8839 27.8881 27.8867 27.8779 27.8867 27.8823 27.8987 27.8888 27.9055 27.893 27.9014 27.899 27.9023 27.9146 27.9074 27.9129 27.916 27.9043 27.921 27.9314 27.9296 27.918 27.9268 27.9324 27.9348 27.9557 27.9395 27.9597 27.9544 27.9769 27.96 27.9523 27.9809 27.9727 27.9722 27.9979 27.9753 27.9969 28.0035 27.9882 28.0025 28.0335 28.0014 28.0059 28.0212 28.0251 28.0155 28.0157 28.0271 28.0246 28.0099 28.0307 28.027 28.0424 28.039 28.0561 28.0665 28.0712 28.0889 28.095 28.0899 28.1408 28.1481 28.159 28.1582 28.146 28.1593 28.1539 28.1547 28.1702 28.173 28.1955 28.1883 28.2074 28.2081 28.2148 28.215 28.2427 28.2251 28.2534 28.2495 28.2626 28.2575 28.287 28.2779 28.2923 28.2987 28.3136 28.3209 28.3229 28.3316 28.3419 28.3549 28.3627 28.3507 28.3739 28.3787 28.3779 28.3957 28.3942 28.4059 28.4147 28.4203 28.4245 28.473 28.4642 28.4893 28.5015 28.5133 28.5126 28.5351 28.5542 28.5435 28.5431 28.5729 28.5802 28.606 28.6006 28.6154 28.6235 28.6331 28.6333 28.6775 28.6602 28.6874 28.6875 28.6892 28.7239 28.7217 28.7266 28.7708 28.7664 28.7762 28.7807 28.7763 28.815 28.8096 28.8371 28.8443 28.8693 28.8721 28.9107 28.9075 28.9204 28.9358 28.9203 28.9493 28.9301 28.9758 28.9623 28.9977 29.0244 29.0511 29.0529 29.0793 29.0883 29.0996 29.1255 29.1384 29.1441 29.1491 29.1793 29.1899 29.1992 29.2213 29.244 29.2646 29.2656 29.2862 29.3146 29.2871 29.3427 29.3522 29.3674 29.3972 29.4082 29.4278 29.4274 29.4186 29.4714 29.4822 29.5007 29.5362 29.5486 29.566 29.5687 29.573 29.5852 29.5996 29.6163 29.6601 29.6679 29.708 29.7035 29.7059 29.7539 29.7529 29.7599 29.8436 29.8317 29.8486 29.8502 29.8755 29.8835 29.9354 29.9427 29.9743 29.98 30.0038 30.0184 30.0252 30.0709 30.0853 30.1086 30.1392 30.1263 30.1739 30.2077 30.2011 30.2341 30.2564 30.2813 30.3005 30.3114 30.3249 30.3654 30.3821 30.3977 30.4457 30.4538 30.4745 30.5178 30.5286 30.5493 30.6025 30.5851 30.5963 30.6191 30.6539 30.6595 30.6594 30.62 24.0021 23.9221 23.9031 30.6196 30.6437 30.6719 30.6636 21.6576 21.7103 22.065 22.063 30.7766 30.8158 30.8247 30.8308 30.862 30.8848 30.8752 30.9195 30.9422 30.9384 30.9714 22.0999 22.1905 22.197 31.0252 31.0778 31.0993 31.1283 31.1177 21.5951 21.5767 21.4996 31.273 31.3068 21.4856 21.5192 15.5882
28.8924 28.8821 28.8584 28.8469 28.8436 28.8174 28.8288 28.7991 28.7917 28.7686 28.753 28.7494 28.7388 28.7205 28.7083 28.6914 28.6851 28.6867 28.6663 28.6607 28.6521 28.6354 28.6191 28.5977 28.5895 28.5744 28.5727 28.5451 28.5341 28.5246 28.5205 28.5158 28.4992 28.486 28.4652 28.4628 28.449 28.447 28.4334 28.4187 28.401 28.3947 28.382 28.3723 28.3713 28.3605 28.3685 28.3418 28.3307 28.3191 28.3114 28.3111 28.2938 28.2996 28.2756 28.2541 28.2541 28.2441 28.2366 28.2209 28.2216 28.1945 28.1895 28.1722 28.1652 28.1609 28.1515 28.1294 28.1371 28.1266 28.1338 28.1224 28.1293 28.1296 28.1281 28.1489 28.1207 28.0941 28.0966 28.0762 28.0569 28.0517 28.0629 28.0442 28.0419 28.0303 28.0284 28.0115 28.0067 28.0007 27.9972 27.9953 27.9896 27.9926 27.9774 27.982 27.9735 27.9527 27.9616 27.9638 27.952 27.948 27.9502 27.9561 27.9424 27.9246 27.9292 27.9165 27.9237 27.927 27.9108 27.9101 27.9029 27.9093 27.8938 27.8882 27.8929 27.8884 27.8836 27.8898 27.8698 27.8753 27.8684 27.877 27.8718 27.8678 27.8715 27.8646 27.852 27.8597 27.8647 27.8486 27.8563 27.8581 27.8463 27.8431 27.8539 27.8456 27.8679 27.8435 27.8377 27.8558 27.8469 27.8475 27.8288 27.8272 27.843 27.8386 27.8289 27.854 27.8247 27.8229 27.8413 27.8301 27.8216 27.8276 27.8216 27.8212 27.823 27.8241 27.8234 27.82 27.8334 27.845 27.8373 27.8316 27.8377 27.8293 27.8467 27.8336 27.8333 27.8347 27.8369 27.8428 27.8481 27.8457 27.8439 27.8558 27.8593 27.8514 27.8519 27.8476 27.8633 27.8498 27.879 27.857 27.8633 27.8712 27.8783 27.8868 27.8742 27.8765 27.8808 27.8922 27.8868 27.8855 27.8971 27.8897 27.8983 27.9061 27.905 27.9294 27.9141 27.9208 27.9182 27.9425 27.9208 27.9282 27.9485 27.9409 27.9547 27.9448 27.9479 27.9547 27.9534 27.9513 27.9556 27.9523 27.9578 27.9544 27.9648 27.9751 27.9828 27.993 28.0095 28.0244 28.0322 28.0392 28.0377 28.0543 28.0604 28.0909 28.0875 28.0835 28.0808 28.0794 28.0929 28.0981 28.1231 28.1214 28.1303 28.1404 28.1387 28.1674 28.1632 28.1688 28.1557 28.1594 28.1961 28.1924 28.2047 28.2128 28.2285 28.226 28.2338 28.2274 28.2537 28.249 28.2472 28.264 28.291 28.2916 28.299 28.3086 28.3366 28.3046 28.306 28.3366 28.3493 28.3573 28.3653 28.3751 28.3814 28.3696 28.4034 28.4231 28.4147 28.4293 28.4413 28.4522 28.4595 28.4509 28.4819 28.4962 28.5003 28.5286 28.5268 28.5443 28.5608 28.5811 28.5848 28.5857 28.6187 28.6251 28.6376 28.654 28.656 28.6408 28.6435 28.6837 28.7113 28.7232 28.6924 28.7234 28.7257 28.7308 28.7559 28.7943 28.7957 28.8159 28.7945 28.8285 28.8159 28.8649 28.8825 28.8861 28.9151 28.9103 28.9325 28.9369 28.9635 28.9726 28.9693 28.9793 29.021 29.0393 29.0205 29.0689 29.0564 29.0772 29.0826 29.1373 29.1204 29.1453 29.1653 29.165 29.1631 29.2038 29.2146 29.2314 29.2617 29.2881 29.2914 29.3231 29.3328 29.3132 29.3493 29.366 29.4137 29.3954 29.4232 29.4346 29.4566 29.4783 29.519 29.522 29.5348 29.536 29.5665 29.5485 29.5712 29.6108 29.6183 29.663 29.6578 29.7014 29.7127 29.7207 29.7555 29.7923 29.7873 29.8169 29.8182 29.847 29.8397 29.8676 29.9097 29.9318 29.968 29.9728 29.9741 30.0049 30.0235 30.0358 30.0588 30.0803 30.0811 30.1261 30.1535 30.1579 30.1845 30.2021 30.246 30.2524 30.3152 30.286 30.3324 30.3456 30.3473 30.4106 30.4147 30.4385 30.4854 30.5019 30.5223 30.5174 30.5604 30.5629 30.5963 30.5934 30.6309 24.0372 23.9943 23.9551 23.941 30.5471 30.5424 30.612 21.0379 21.5815 21.7904 22.0692 22.0678 22.0594 22.0355 30.7694 30.7922 30.7984 30.8208 30.8401 30.8643 30.8862 30.9034 30.9339 30.9283 22.1933 22.1739 30.9926 22.2364 31.0401 31.1052 31.1013 21.5898 21.5771 31.1924 31.2314 21.5098 21.4907 21.4896 16.0666
28.8371 28.8265 28.8155 28.7972 28.7852 28.7716 28.7576 28.7436 28.7362 28.7151 28.6989 28.6862 28.6754 28.6742 28.655 28.6391 28.6289 28.6253 28.5991 28.5833 28.5753 28.5591 28.5468 28.5542 28.5289 28.5234 28.5099 28.5002 28.4831 28.4705 28.4645 28.463 28.4276 28.4305 28.4277 28.4052 28.3948 28.3835 28.3802 28.3679 28.3533 28.3576 28.3365 28.3259 28.3142 28.3022 28.2883 28.2865 28.2677 28.2745 28.2706 28.2465 28.2412 28.2363 28.2132 28.2321 28.1942 28.1779 28.1743 28.1687 28.1557 28.133 28.1222 28.1206 28.1025 28.0976 28.0949 28.1057 28.0861 28.0953 28.0967 28.1062 28.0988 28.0864 28.087 28.0783 28.0384 28.0328 28.0256 28.007 28.0042 28.0013 27.9984 27.9847 27.9794 27.9903 27.9804 27.9635 27.9515 27.963 27.9494 27.9429 27.9406 27.9402 27.9264 27.9261 27.9215 27.9223 27.9072 27.8993 27.9342 27.9002 27.882 27.8823 27.9071 27.8797 27.8892 27.8801 27.8648 27.8563 27.8678 27.8681 27.8576 27.8561 27.847 27.8407 27.8381 27.8416 27.8321 27.8327 27.8298 27.8242 27.814 27.8175 27.8135 27.8216 27.8149 27.7998 27.8064 27.8113 27.7939 27.7991 27.7954 27.8019 27.7885 27.7984 27.81 27.7926 27.7897 27.7897 27.786 27.7927 27.7803 27.7873 27.7829 27.7835 27.7857 27.7782 27.7755 27.7734 27.7825 27.7769 27.7806 27.7781 27.7784 27.7768 27.7724 27.8011 27.7824 27.7921 27.7788 27.7807 27.7733 27.7706 27.7748 27.7898 27.7826 27.7867 27.7996 27.7815 27.7814 27.7913 27.7795 27.7995 27.7998 27.7927 27.7905 27.7929 27.7933 27.7958 27.7883 27.7865 27.8019 27.8109 27.826 27.8028 27.8098 27.8069 27.8157 27.8169 27.8216 27.8355 27.8308 27.8412 27.8388 27.8445 27.8485 27.838 27.8514 27.8522 27.8483 27.8511 27.8847 27.8635 27.8752 27.882 27.8862 27.8795 27.8919 27.888 27.8906 27.8934 27.8883 27.8954 27.8814 27.8824 27.8928 27.9009 27.9063 27.9164 27.9231 27.9405 27.9546 27.9592 27.9789 27.9763 27.9858 28.0012 28.0123 28.0324 28.0219 28.0184 28.0134 28.0232 28.055 28.0446 28.0547 28.0533 28.069 28.0686 28.084 28.0958 28.0946 28.1013 28.1265 28.1131 28.1097 28.1036 28.1068 28.1375 28.153 28.1604 28.1509 28.161 28.1867 28.1854 28.1856 28.1979 28.2048 28.2075 28.2229 28.2349 28.2259 28.2417 28.2544 28.263 28.2745 28.2728 28.2973 28.2993 28.3 28.3165 28.317 28.3298 28.3265 28.3547 28.3524 28.3882 28.3918 28.4115 28.418 28.4301 28.4337 28.4482 28.455 28.4675 28.4765 28.4872 28.5016 28.5114 28.5237 28.5318 28.5359 28.5734 28.5745 28.5934 28.5832 28.6187 28.6155 28.6268 28.641 28.6718 28.6976 28.6888 28.6802 28.7006 28.7024 28.7379 28.7501 28.7468 28.7387 28.7812 28.7895 28.779 28.8218 28.8293 28.8624 28.8696 28.8851 28.8925 28.9063 28.8924 28.9222 28.9463 28.923 28.9516 28.9884 29.0075 28.9995 29.0152 29.0151 29.0537 29.0692 29.1082 29.1025 29.1276 29.1515 29.1725 29.1739 29.1694 29.1905 29.1996 29.2367 29.2684 29.2585 29.2652 29.2949 29.3357 29.342 29.3553 29.366 29.3552 29.4139 29.4048 29.4177 29.4508 29.4793 29.4949 29.508 29.485 29.522 29.5696 29.5853 29.575 29.6146 29.6115 29.6294 29.6282 29.6811 29.7117 29.7407 29.7564 29.7436 29.7651 29.7916 29.8171 29.8371 29.8573 29.8671 29.902 29.9214 29.9257 29.9852 29.9734 30.0112 30.013 30.0484 30.0693 30.0847 30.0998 30.1204 30.1496 30.1812 30.177 30.1981 30.2047 30.2527 30.3067 30.3129 30.3176 30.3651 30.3605 30.4037 30.4401 30.4175 30.4604 30.482 30.5167 30.5216 30.5105 30.5457 24.0798 24.0002 23.9822 30.4752 30.4837 30.4962 30.475 20.9829 21.3225 21.8934 22.0624 22.0616 22.0573 22.0274 30.6898 30.6948 30.7424 30.7692 30.7773 30.8138 30.8176 30.8428 30.8737 30.9033 30.869 22.1911 30.9295 30.9492 30.9783 31.0211 31.0647 21.5669 21.5552 16.5392 21.4951 21.522 21.517 21.4642 16.1876
28.7817 28.7627 28.7548 28.7353 28.7241 28.7164 28.7008 28.6918 28.6776 28.6653 28.6518 28.6362 28.6242 28.6115 28.6061 28.579 28.5824 28.5566 28.5542 28.5488 28.5349 28.5139 28.4889 28.4853 28.4681 28.4577 28.4522 28.4312 28.4389 28.4125 28.4049 28.3836 28.368 28.3623 28.3596 28.3506 28.3373 28.3336 28.3169 28.3044 28.3043 28.291 28.2775 28.2821 28.2597 28.2426 28.2306 28.2343 28.2182 28.2124 28.2009 28.1887 28.1931 28.1816 28.1743 28.1504 28.149 28.1182 28.1117 28.1088 28.0854 28.0786 28.0747 28.0697 28.0606 28.0677 28.0684 28.0714 28.0776 28.0435 28.0595 28.0327 28.0276 28.025 28.004 27.9995 27.9846 27.9835 27.9719 27.969 27.9557 27.962 27.9369 27.9467 27.9402 27.925 27.9259 27.912 27.9089 27.9277 27.8949 27.8942 27.8753 27.8982 27.8817 27.8679 27.8714 27.857 27.8697 27.8497 27.8466 27.8495 27.8371 27.8474 27.835 27.8317 27.8345 27.8168 27.8159 27.8096 27.8129 27.8019 27.8106 27.7997 27.7941 27.7945 27.7889 27.7842 27.7817 27.7826 27.7743 27.7648 27.7732 27.7664 27.7717 27.777 27.7631 27.7536 27.7516 27.7743 27.75 27.7533 27.7627 27.7588 27.7428 27.7445 27.742 27.7383 27.7329 27.7451 27.7358 27.7369 27.7292 27.7557 27.7358 27.7306 27.7299 27.7406 27.7227 27.7269 27.7269 27.7324 27.7238 27.7456 27.7304 27.715 27.739 27.7259 27.7252 27.7351 27.7256 27.7366 27.7224 27.7383 27.7187 27.7209 27.7355 27.7288 27.7422 27.7251 27.7406 27.7296 27.7323 27.7304 27.735 27.7395 27.741 27.7526 27.7507 27.7579 27.7537 27.7523 27.747 27.7534 27.7534 27.7723 27.7639 27.7565 27.7655 27.7728 27.773 27.7807 27.7808 27.7803 27.7869 27.7839 27.792 27.7892 27.7925 27.7921 27.8038 27.8191 27.8106 27.815 27.825 27.8154 27.8284 27.8365 27.8324 27.8331 27.8171 27.8235 27.8293 27.8309 27.8307 27.8423 27.8562 27.8588 27.8754 27.8822 27.8873 27.9058 27.9118 27.9195 27.943 27.9346 27.9448 27.9683 27.9537 27.9655 27.9642 27.9582 27.9734 27.9795 27.9809 27.9929 27.9914 28.0146 28.0234 28.025 28.0176 28.04 28.026 28.0368 28.0666 28.0562 28.0658 28.0792 28.0681 28.0816 28.0932 28.0946 28.1154 28.1053 28.1287 28.1161 28.1423 28.1434 28.1659 28.1616 28.1644 28.1683 28.1844 28.1876 28.2073 28.2122 28.2163 28.2005 28.2404 28.2443 28.2608 28.2761 28.2882 28.2822 28.2979 28.3159 28.3155 28.3265 28.3363 28.3518 28.3419 28.3583 28.369 28.3971 28.3977 28.4176 28.405 28.4423 28.4506 28.4804 28.4552 28.475 28.4743 28.5005 28.5161 28.5095 28.5438 28.5514 28.5792 28.5741 28.5902 28.5604 28.6296 28.6338 28.6234 28.6247 28.6246 28.6703 28.6953 28.6988 28.7128 28.719 28.708 28.7424 28.7475 28.7767 28.7629 28.8051 28.8139 28.8614 28.8258 28.8425 28.8428 28.8981 28.8933 28.8986 28.931 28.9333 28.954 28.9679 28.9891 28.9719 29.029 29.0124 29.0185 29.0678 29.0896 29.1061 29.0971 29.0985 29.1503 29.1528 29.1809 29.1773 29.2226 29.2215 29.2558 29.254 29.2909 29.2755 29.3222 29.3111 29.3259 29.3492 29.3753 29.4046 29.4141 29.4616 29.4483 29.4468 29.4704 29.4643 29.5032 29.5334 29.5488 29.587 29.5906 29.6096 29.6278 29.6236 29.6696 29.6963 29.7073 29.7302 29.7207 29.7413 29.7647 29.7912 29.8399 29.8284 29.8791 29.8966 29.8731 29.9151 29.9365 29.9599 29.9623 29.999 30.0369 30.0393 30.0483 30.0854 30.0821 30.1143 30.1325 30.2037 30.1821 30.2104 30.2301 30.2603 30.287 30.2968 30.3393 30.3534 30.373 30.4055 30.4378 30.4543 30.476 30.4708 24.1147 24.0843 24.0236 30.4867 30.493 30.484 30.442 30.4272 20.9796 21.2787 21.6806 22.0622 22.0791 22.0611 22.0321 21.2156 30.681 30.6917 30.7013 30.7352 30.7362 30.7327 20.8412 30.8202 30.8323 22.3007 22.1561 22.2156 22.2509 30.9032 30.9305 30.9826 21.5558 21.5262 21.2897 21.2093 21.5188 21.4862 21.495 15.7705
28.7359 28.733 28.6995 28.6865 28.6639 28.668 28.6494 28.6447 28.6301 28.6088 28.5931 28.5821 28.574 28.55 28.5342 28.5326 28.5237 28.5256 28.4953 28.4941 28.4638 28.4459 28.4348 28.4271 28.4123 28.396 28.3812 28.3738 28.3784 28.3619 28.3494 28.3445 28.3547 28.3483 28.2998 28.3037 28.2955 28.2793 28.2678 28.2657 28.2593 28.2443 28.2265 28.2107 28.2121 28.195 28.2011 28.177 28.1648 28.1644 28.1465 28.1296 28.1248 28.1325 28.1142 28.0991 28.1032 28.0623 28.0569 28.0465 28.0428 28.0424 28.0425 28.0409 28.0375 28.0268 28.038 28.0359 28.0325 27.9995 27.9781 27.9698 27.9729 27.9562 27.9418 27.9366 27.9268 27.937 27.9388 27.9058 27.9062 27.8968 27.9109 27.8918 27.8866 27.8826 27.8662 27.8623 27.8625 27.8531 27.8501 27.8472 27.838 27.8303 27.8256 27.8155 27.8106 27.8104 27.8114 27.8064 27.7996 27.7958 27.7864 27.7805 27.7867 27.7722 27.7697 27.7722 27.7826 27.7547 27.7568 27.7552 27.7724 27.7516 27.7406 27.7524 27.7395 27.751 27.7359 27.7264 27.7239 27.7226 27.7202 27.7136 27.7131 27.7152 27.7141 27.7067 27.7065 27.7 27.7103 27.7109 27.7078 27.6924 27.6937 27.7065 27.6982 27.71 27.7048 27.6889 27.6849 27.677 27.6845 27.6794 27.6812 27.6897 27.6802 27.6744 27.6759 27.6833 27.672 27.6775 27.6678 27.6859 27.68 27.6827 27.6701 27.6714 27.6812 27.6743 27.6808 27.6751 27.6813 27.6772 27.6886 27.6877 27.6859 27.6872 27.6921 27.6801 27.6891 27.6782 27.6984 27.6894 27.6907 27.6981 27.7059 27.6919 27.6948 27.6927 27.7029 27.7021 27.7191 27.7088 27.7124 27.7177 27.7049 27.7173 27.7146 27.7267 27.7108 27.7268 27.7492 27.7271 27.7391 27.7442 27.746 27.7735 27.7431 27.7496 27.7593 27.7673 27.7679 27.7698 27.7587 27.7706 27.7611 27.7529 27.7577 27.7705 27.7609 27.774 27.7831 27.7928 27.7927 27.8071 27.8242 27.8274 27.8297 27.8354 27.8583 27.8547 27.8868 27.8936 27.8826 27.8877 27.908 27.8996 27.8966 27.9045 27.911 27.9048 27.9178 27.9266 27.9312 27.9446 27.9498 27.9502 27.9624 27.9628 27.9674 27.9816 27.994 27.9996 27.9989 28.0207 28.0186 28.0337 28.0262 28.0071 28.0249 28.0329 28.0578 28.0686 28.068 28.0946 28.09 28.0939 28.1076 28.1058 28.1111 28.1292 28.1301 28.1266 28.1483 28.1605 28.1847 28.173 28.1978 28.1908 28.1854 28.2109 28.235 28.2299 28.2395 28.2547 28.2627 28.2571 28.2742 28.2886 28.3164 28.3042 28.3081 28.3404 28.3547 28.3555 28.366 28.3711 28.398 28.4025 28.4048 28.4184 28.424 28.4675 28.4464 28.4744 28.4887 28.4956 28.522 28.5227 28.5269 28.539 28.5655 28.5865 28.5843 28.5944 28.5721 28.607 28.6215 28.6229 28.6588 28.6688 28.68 28.6976 28.6983 28.7223 28.7434 28.7436 28.7582 28.773 28.7845 28.8032 28.8141 28.8216 28.8452 28.8698 28.8697 28.8816 28.9114 28.914 28.8941 28.9495 28.9465 28.9718 28.9829 29.008 29.0265 29.0302 29.0456 29.0727 29.0959 29.1141 29.12 29.1357 29.1556 29.1705 29.1815 29.1982 29.2197 29.2396 29.2615 29.2711 29.2894 29.2899 29.2887 29.3531 29.3186 29.3748 29.4159 29.4103 29.4152 29.4392 29.4149 29.4578 29.4985 29.5197 29.5447 29.5474 29.5692 29.5904 29.6177 29.6333 29.6382 29.6664 29.6733 29.6944 29.7195 29.7247 29.7484 29.7886 29.7837 29.8066 29.8462 29.8549 29.8662 29.8974 29.936 29.94 29.9491 29.9751 29.9843 30.0038 30.0285 30.0566 30.0472 30.0834 30.1565 30.1507 30.1698 30.2075 30.2068 30.2474 30.2826 30.2994 30.3094 30.3486 30.3434 30.4036 30.4267 30.4243 24.1377 21.4088 24.0486 30.4958 30.4905 30.4769 30.4478 30.4011 30.3744 21.1894 21.4504 30.4106 30.4695 22.0361 22.0005 30.5466 30.5785 30.6327 30.6387 30.6719 30.6632 20.8351 21.099 22.3004 22.3955 30.7603 22.1314 22.2345 30.8241 30.8361 30.9002 30.8953 21.5476 21.4164 16.5913 16.5531 16.1944 21.4762 16.1684 16.0944
28.6718 28.6612 28.6511 28.6367 28.6219 28.6012 28.5944 28.5774 28.568 28.557 28.5378 28.5337 28.5089 28.5044 28.4881 28.4718 28.4593 28.445 28.4328 28.4295 28.4058 28.4032 28.392 28.3733 28.3667 28.3563 28.3401 28.325 28.3123 28.3234 28.288 28.2831 28.2714 28.2573 28.2527 28.271 28.2363 28.233 28.2108 28.2108 28.1887 28.1976 28.1884 28.1791 28.1666 28.1495 28.1281 28.131 28.1163 28.1116 28.0947 28.0988 28.0728 28.0696 28.0567 28.0521 28.0283 28.0324 28.0103 28.0235 28.0112 28.0098 28.001 28.0003 28.0041 27.9672 27.9674 27.9615 27.9471 27.9338 27.927 27.9162 27.9107 27.9055 27.8922 27.8818 27.8802 27.8828 27.8673 27.8598 27.8535 27.8582 27.8357 27.8381 27.8348 27.8304 27.8165 27.8069 27.8017 27.795 27.8175 27.7961 27.7672 27.7798 27.7695 27.761 27.7609 27.7569 27.7689 27.7545 27.7458 27.7367 27.7391 27.7243 27.7259 27.7273 27.7238 27.7171 27.7148 27.7109 27.7052 27.7052 27.6968 27.6949 27.6899 27.6996 27.6893 27.6764 27.6823 27.6809 27.6746 27.6859 27.6737 27.6757 27.6822 27.6742 27.6791 27.6631 27.661 27.6505 27.6542 27.6514 27.6459 27.6435 27.6531 27.6436 27.6546 27.6434 27.6371 27.643 27.6446 27.6347 27.6439 27.6428 27.6283 27.6441 27.6368 27.6458 27.6279 27.6287 27.642 27.6274 27.6243 27.6235 27.6284 27.625 27.6318 27.6289 27.6251 27.6227 27.6357 27.6396 27.632 27.6431 27.6329 27.6336 27.6387 27.6326 27.6467 27.6436 27.64 27.6481 27.6402 27.6296 27.6451 27.6354 27.6447 27.6452 27.6365 27.6451 27.6503 27.6715 27.6452 27.649 27.6661 27.6536 27.679 27.6751 27.6638 27.6837 27.684 27.684 27.6786 27.6848 27.6818 27.684 27.6873 27.6904 27.6964 27.6968 27.709 27.7028 27.6994 27.7073 27.6949 27.7091 27.6975 27.7133 27.7059 27.7191 27.724 27.7332 27.7428 27.7603 27.7742 27.767 27.7793 27.7885 27.794 27.7991 27.8076 27.8209 27.817 27.8352 27.8235 27.8266 27.8314 27.8356 27.8406 27.8501 27.8519 27.8652 27.861 27.8733 27.8873 27.8893 27.8938 27.8979 27.9027 27.907 27.914 27.9325 27.9241 27.9453 27.9497 27.9668 27.9676 27.98 27.9783 27.9694 27.9647 27.9765 27.9992 28.0085 28.0186 28.0228 28.0361 28.0333 28.04 28.0655 28.0509 28.0679 28.0813 28.0965 28.1044 28.1112 28.109 28.1247 28.1435 28.1391 28.1491 28.166 28.1789 28.166 28.1875 28.1973 28.221 28.2034 28.2233 28.2448 28.2487 28.2651 28.2739 28.2917 28.3086 28.2817 28.3013 28.3188 28.3225 28.3359 28.3491 28.3738 28.389 28.4034 28.4021 28.4077 28.4269 28.4371 28.4283 28.4736 28.4757 28.4901 28.4883 28.5303 28.5455 28.5456 28.549 28.5433 28.5523 28.5606 28.5992 28.6072 28.6374 28.6401 28.6561 28.6664 28.6581 28.6878 28.7005 28.7134 28.7309 28.7434 28.7495 28.7763 28.7931 28.7987 28.8036 28.8289 28.8508 28.8657 28.872 28.8816 28.901 28.9085 28.9355 28.947 28.9602 28.9327 28.9959 29.0157 29.0315 29.0414 29.0369 29.0623 29.1001 29.1064 29.1399 29.1458 29.1471 29.1653 29.1697 29.2391 29.2062 29.2595 29.263 29.2928 29.3088 29.3358 29.3251 29.3509 29.3574 29.3756 29.3643 29.3877 29.3933 29.4464 29.4607 29.4573 29.485 29.5133 29.5224 29.5696 29.5928 29.5861 29.6446 29.6349 29.6758 29.6888 29.6872 29.7272 29.7225 29.7587 29.7934 29.7947 29.8031 29.847 29.8488 29.855 29.8762 29.8986 29.9206 29.9534 29.9608 30 30.0103 30.0343 30.0681 30.0724 30.0983 30.1182 30.1544 30.1968 30.2257 30.2381 30.2602 30.2757 30.3053 30.3261 30.3505 30.353 24.1592 24.1194 21.4205 30.4315 30.4644 30.4552 30.4515 30.4127 30.3639 21.1919 21.1904 30.3968 30.4588 21.8314 21.8185 30.506 30.5321 30.5445 30.6087 30.6135 30.6284 20.9745 22.0208 22.2364 22.3451 22.3583 22.363 22.2138 30.7651 30.777 21.9229 21.5403 21.5546 16.5854 16.5744 16.2551 16.1741 16.1133 16.0243 16.0944
28.6128 28.6067 28.5916 28.575 28.5585 28.5561 28.5428 28.5367 28.5061 28.5126 28.477 28.4769 28.4613 28.4377 28.4126 28.4225 28.4104 28.3818 28.3765 28.3643 28.3569 28.3388 28.3547 28.3171 28.2965 28.2911 28.2881 28.269 28.2608 28.2457 28.2326 28.2393 28.2338 28.1983 28.2037 28.2053 28.1789 28.1745 28.1687 28.1488 28.1469 28.128 28.1248 28.1312 28.0945 28.0873 28.094 28.08 28.0693 28.0718 28.0483 28.0242 28.0248 28.019 27.9968 28.0127 28.0018 27.9949 27.9767 27.965 27.9951 27.9695 27.977 27.9415 27.9263 27.9259 27.9219 27.9017 27.8963 27.8876 27.8772 27.8701 27.8623 27.8602 27.8384 27.8293 27.8216 27.8274 27.8174 27.8034 27.7996 27.8156 27.792 27.7818 27.784 27.7737 27.764 27.76 27.7556 27.7507 27.7527 27.7445 27.7296 27.7212 27.7209 27.7053 27.7203 27.7032 27.702 27.7095 27.6961 27.6876 27.686 27.6775 27.6827 27.6788 27.6762 27.6714 27.6639 27.6629 27.6547 27.653 27.6492 27.6476 27.6376 27.6455 27.6515 27.6278 27.6307 27.6279 27.6315 27.6219 27.6229 27.6346 27.6228 27.607 27.6238 27.6187 27.6027 27.5979 27.6078 27.5999 27.6054 27.6035 27.5945 27.5902 27.5974 27.6117 27.6065 27.5864 27.5889 27.5926 27.5875 27.5954 27.5855 27.5783 27.5957 27.5743 27.5786 27.5914 27.575 27.5755 27.606 27.5698 27.5866 27.5716 27.5944 27.5843 27.5781 27.5838 27.5815 27.5858 27.5774 27.5846 27.5892 27.5854 27.5978 27.591 27.5906 27.5848 27.5811 27.5908 27.591 27.5958 27.5898 27.5886 27.5922 27.5934 27.592 27.5959 27.6193 27.5951 27.6015 27.6022 27.6161 27.6099 27.6077 27.6181 27.6108 27.6348 27.6144 27.6367 27.6197 27.6206 27.6259 27.6321 27.647 27.6566 27.6407 27.6395 27.646 27.647 27.6402 27.6377 27.6436 27.647 27.6543 27.6603 27.6683 27.6736 27.6909 27.7023 27.7026 27.7218 27.7266 27.7279 27.7368 27.7591 27.7638 27.7444 27.7582 27.7538 27.7555 27.7879 27.7688 27.7694 27.7791 27.7725 27.7887 27.7997 27.8068 27.8083 27.8296 27.8204 27.8399 27.8342 27.8543 27.8545 27.8606 27.8695 27.864 27.8768 27.8767 27.8914 27.9124 27.906 27.9183 27.9142 27.9382 27.9447 27.9282 27.9335 27.9355 27.9618 27.9796 27.9796 27.9741 27.9876 27.9984 28.0045 27.9952 28.0206 28.027 28.0441 28.0504 28.0708 28.0711 28.0766 28.0715 28.086 28.1091 28.1187 28.1202 28.1259 28.1289 28.1528 28.1393 28.1647 28.1826 28.2009 28.206 28.2152 28.2206 28.2276 28.2534 28.2444 28.2588 28.2725 28.2728 28.2948 28.2973 28.3277 28.3234 28.3421 28.3503 28.3447 28.3498 28.3892 28.4037 28.4187 28.4222 28.4213 28.4458 28.4503 28.4732 28.5023 28.4937 28.493 28.5003 28.5175 28.5216 28.5678 28.573 28.5674 28.6064 28.6017 28.6186 28.6183 28.6519 28.6571 28.6615 28.7096 28.7022 28.7286 28.7396 28.7643 28.7565 28.7597 28.7914 28.8026 28.8241 28.8371 28.8508 28.8341 27.4145 28.9014 28.9102 28.9178 28.9346 28.9344 28.9865 28.9808 28.9933 29.0223 29.0264 29.0097 29.0651 29.0619 29.0948 29.1389 29.137 29.1741 29.1446 29.1944 29.2057 29.2245 29.2336 29.2447 29.2413 29.3258 29.3305 29.3188 29.3341 29.3467 29.3513 29.3761 29.3739 29.4285 29.4504 29.4409 29.4912 29.5154 29.5363 29.5414 29.5656 29.5655 29.6049 29.618 29.5983 29.6694 29.6501 29.6655 29.7049 29.7124 29.7734 17.5627 17.5363 17.6119 17.6154 17.6209 29.84 29.8839 29.8945 29.9313 29.9441 29.9762 29.9953 30.0249 30.0443 30.0623 30.103 30.0996 30.1566 30.1664 30.187 30.2127 30.2576 21.2663 30.2669 30.2319 24.1729 24.1103 21.4113 30.3433 30.3908 30.4263 30.4304 30.3999 30.3605 21.1715 21.1978 30.3475 30.385 21.7886 22.0137 30.4598 30.4652 30.4786 30.5328 30.5682 22.1397 21.2634 21.172 22.2001 22.2159 22.2273 21.9179 30.6646 30.7076 30.7422 21.5411 16.6381 16.5428 16.5722 16.566 16.2133 16.1947 16.0941 16.0855 16.0881
28.56 28.5456 28.5402 28.5172 28.5185 28.4952 28.4947 28.4609 28.4746 28.4602 28.4172 28.4171 28.4087 28.3866 28.3704 28.37 28.3668 28.337 28.3216 28.316 28.2933 28.2883 28.2811 28.2616 28.2525 28.2363 28.2367 28.2249 28.2012 28.2009 28.1915 28.1745 28.1672 28.1451 28.145 28.1292 28.1298 28.1143 28.1116 28.1063 28.0858 28.0779 28.0658 28.0591 28.0507 28.0449 28.0397 28.0108 28.0113 28.0095 27.9833 27.9873 27.9754 27.9639 27.9497 27.9493 27.9373 27.9599 27.9623 27.9303 27.9166 27.899 27.8963 27.8951 27.8751 27.8651 27.8704 27.8504 27.8305 27.8243 27.8225 27.8342 27.8077 27.8042 27.7918 27.785 27.7784 27.7733 27.7733 27.7624 27.7567 27.7411 27.7532 27.735 27.7245 27.7195 27.7228 27.7139 27.6995 27.7019 27.6888 27.691 27.6783 27.6853 27.6727 27.6616 27.6604 27.6572 27.656 27.6507 27.6389 27.6534 27.6417 27.6274 27.63 27.6172 27.6225 27.6128 27.6142 27.6123 27.6088 27.6177 27.5999 27.6148 27.6042 27.5999 27.5933 27.5813 27.5784 27.5792 27.5805 27.5845 27.5707 27.561 27.56 27.56 27.5676 27.5593 27.562 27.5568 27.5608 27.5491 27.5407 27.5475 27.5467 27.5496 27.5361 27.5425 27.5462 27.536 27.5401 27.5371 27.531 27.5342 27.5344 27.5473 27.533 27.5474 27.5313 27.5415 27.5317 27.5306 27.5369 27.5444 27.5311 27.5398 27.5248 27.5232 27.5483 27.5518 27.5275 27.5491 27.5221 27.525 27.5286 27.5454 27.5368 27.5317 27.5397 27.5347 27.5301 27.5451 27.5467 27.5557 27.5487 27.5315 27.5514 27.5452 27.5552 27.5421 27.5565 27.5456 27.5494 27.5612 27.5496 27.5565 27.5649 27.5657 27.5864 27.5708 27.5668 27.5886 27.5694 27.5746 27.5932 27.5903 27.5955 27.5814 27.5791 27.5902 27.5853 27.5839 27.5826 27.5897 27.5967 27.6045 27.6153 27.6203 27.6342 27.6474 27.6549 27.6614 27.6653 27.6708 27.6853 27.6852 27.6868 27.7 27.7044 27.6941 27.6963 27.7088 27.7044 27.7259 27.7146 27.7209 27.7227 27.7299 27.7317 27.7453 27.7551 27.7588 27.76 27.7747 27.7682 27.7878 27.8015 27.796 27.8007 27.8071 27.8207 27.8176 27.831 27.8493 27.8375 27.8577 27.857 27.8647 27.8799 27.8785 27.8796 27.8795 27.8804 27.8992 27.9038 27.9337 27.9306 27.9289 27.93 27.9371 27.9689 27.9614 27.9733 27.9858 27.9908 28.0163 28.0105 28.028 28.0103 28.0319 28.0431 28.0579 28.077 28.0756 28.0957 28.0787 28.1048 28.1223 28.1264 28.1309 28.1447 28.151 28.1511 28.1773 28.1946 28.2061 28.1937 28.2218 28.2197 28.2349 28.2508 28.2713 28.2675 28.2838 28.2893 28.3072 28.3181 28.3403 28.3393 28.3741 28.363 28.3746 28.3877 28.3913 28.4012 28.4346 28.443 28.4586 28.466 28.4499 28.4627 28.4888 28.5073 28.5351 28.5534 28.5514 28.5547 28.5804 28.6009 28.6114 28.6008 28.6399 28.66 28.6562 28.6593 28.6895 28.7139 28.7079 28.7352 28.7307 28.7914 28.797 28.8054 28.8103 28.8231 28.8463 28.8191 28.8644 28.8939 28.901 28.9196 28.9203 28.9487 28.948 28.9823 28.9951 29.0101 29.0155 29.0373 29.0599 29.053 29.0823 29.0922 29.1364 29.1243 29.1657 29.1828 29.1895 29.2227 29.2351 29.2711 29.2692 29.2979 29.2879 29.3006 29.3162 29.3822 29.3824 29.3795 29.4077 29.4311 29.4186 29.4631 29.4575 29.5206 29.5389 29.5378 29.5708 29.5944 29.5634 15.5525 15.6297 29.6623 29.6827 29.6882 17.5341 17.5157 17.5285 17.5888 17.5856 17.5487 29.8394 29.8494 29.8659 29.8921 29.9239 29.934 29.9375 29.9754 30.0056 30.0338 30.0374 30.0802 30.1438 30.1365 30.1299 30.1859 21.2564 21.2473 24.2474 24.1813 24.1665 21.41 30.3195 30.3703 30.3715 30.3751 30.3923 30.3375 21.1059 21.1795 21.2889 21.2903 21.9798 30.3494 30.4053 30.4234 30.4144 22.1175 30.4862 22.183 22.1153 21.9195 22.1442 22.215 22.1232 21.8128 21.679 16.785 30.6597 16.7638 16.7507 16.5406 16.5623 16.5569 16.2256 16.1892 16.1082 16.029 16.0432
28.5186 28.5138 28.4731 28.4717 28.4459 28.4356 28.4197 28.3979 28.4004 28.3728 28.3744 28.3656 28.3605 28.3292 28.3166 28.3105 28.3101 28.2867 28.2748 28.2634 28.255 28.2505 28.2227 28.2068 28.1958 28.1964 28.1774 28.1674 28.1547 28.1533 28.1306 28.1266 28.1119 28.1369 28.0962 28.0925 28.0713 28.0717 28.0721 28.0371 28.038 28.0296 28.0112 28.0141 28.0134 27.9812 27.9886 27.9749 27.9701 27.9586 27.9395 27.9587 27.9343 27.9103 27.9039 27.8907 27.9191 27.8878 27.877 27.8557 27.858 27.8422 27.8287 27.822 27.8203 27.8103 27.7969 27.7967 27.7933 27.7904 27.7762 27.7606 27.7657 27.7505 27.7497 27.7382 27.7251 27.727 27.7317 27.714 27.6999 27.7015 27.7014 27.6852 27.6812 27.6708 27.6811 27.665 27.6673 27.6451 27.647 27.6391 27.6303 27.6319 27.6406 27.6076 27.6182 27.6217 27.6007 27.5986 27.6034 27.592 27.5904 27.5916 27.591 27.5763 27.57 27.5881 27.5646 27.5641 27.5689 27.5519 27.5671 27.5423 27.5534 27.544 27.5484 27.5389 27.5377 27.5419 27.5283 27.5223 27.5192 27.5221 27.5244 27.511 27.5111 27.5067 27.5103 27.5175 27.4977 27.5099 27.5131 27.4958 27.4927 27.4968 27.5177 27.4883 27.4963 27.4973 27.4875 27.5105 27.4876 27.4853 27.4896 27.4888 27.4969 27.4874 27.492 27.4795 27.4822 27.4917 27.4771 27.4887 27.4745 27.4875 27.4797 27.4792 27.4999 27.4744 27.4822 27.4762 27.4929 27.4889 27.487 27.4876 27.4793 27.4916 27.4817 27.4813 27.4849 27.4867 27.5027 27.4946 27.4968 27.5088 27.5043 27.498 27.5027 27.5091 27.493 27.515 27.503 27.5125 27.5095 27.5198 27.5122 27.514 27.5186 27.5169 27.5382 27.5254 27.5295 27.5296 27.5163 27.52 27.5242 27.5201 27.5224 27.5345 27.5305 27.5305 27.5458 27.5551 27.5625 27.5659 27.5735 27.588 27.6002 27.6038 27.6136 27.6146 27.6206 27.6266 27.6205 27.6393 27.6297 27.6193 27.6515 27.6358 27.6352 27.6527 27.6507 27.6573 27.671 27.6793 27.6742 27.6991 27.6821 27.7097 27.7087 27.7134 27.7051 27.7336 27.7346 27.7341 27.7432 27.7398 27.7635 27.7549 27.7852 27.7687 27.7737 27.7892 27.8004 27.8099 27.8105 27.8183 27.8194 27.8155 27.8494 27.8333 27.8469 27.8334 27.8572 27.8535 27.8816 27.8819 27.885 27.8922 27.9144 27.9161 27.9198 27.9383 27.9604 27.936 27.954 27.9708 27.9648 27.9954 28.0181 28.002 28.0236 28.0207 28.0458 28.0343 28.0591 28.0602 28.0667 28.0908 28.0981 28.1097 28.1138 28.1273 28.1297 28.1434 28.1583 28.1808 28.1726 28.1669 28.1994 28.2059 28.2162 28.2372 28.2228 28.2539 28.2809 28.272 28.2776 28.3085 28.3069 28.3244 28.3309 28.3571 28.3699 28.3521 28.3901 28.413 28.4084 28.4303 28.4044 28.4283 28.4302 28.4533 28.4917 28.5008 28.5258 28.5238 28.5409 28.5656 28.5559 28.5494 28.5711 28.5971 28.6268 28.6426 28.6312 28.6643 28.6903 28.7005 28.7155 28.7306 28.7346 28.7094 28.7722 28.7996 28.8025 28.8128 28.8562 28.8366 28.8623 28.8661 28.8952 28.8886 28.9316 28.9352 28.9701 28.9827 28.9856 29.0273 28.9525 29.0465 29.0665 29.0884 29.0808 29.1188 29.1196 29.1136 29.1603 29.1726 29.1973 29.228 29.2489 29.2585 29.2301 29.2705 29.2717 29.3097 29.328 29.3319 29.4012 29.3902 29.3986 29.4232 29.467 29.4639 29.499 29.4921 29.527 29.5468 15.5875 15.6172 15.6251 17.5191 17.5179 17.5016 17.4959 17.5324 17.5718 17.5548 17.5487 29.7614 29.7849 29.8045 29.8348 29.8429 29.8665 29.9143 29.9256 29.9471 29.9908 29.9907 30.0293 30.0377 30.0875 30.0978 21.239 21.2652 24.2778 24.2628 21.2644 24.1532 24.1678 30.285 30.2833 30.3132 30.3354 30.358 21.0975 21.0649 21.1872 21.3681 21.4153 21.6972 22.0728 30.3441 30.3568 30.389 22.1155 22.1477 22.1597 21.8404 16.4641 22.0578 22.0997 21.8875 21.6784 16.7723 16.7714 16.7449 16.7491 16.5851 16.5912 16.6083 16.548 16.222 16.2112 16.1793 16.0492 16.0581
28.4416 28.4281 28.4167 28.4168 28.396 28.3767 28.3603 28.356 28.3488 28.3255 28.3228 28.3071 28.2964 28.2717 28.2657 28.2541 28.2351 28.2336 28.2282 28.2031 28.1902 28.1905 28.1686 28.1581 28.159 28.1376 28.1496 28.1114 28.1044 28.0903 28.0857 28.0701 28.061 28.0565 28.0286 28.0217 28.0069 28.0125 27.9968 27.9831 27.9837 27.9773 27.981 27.9597 27.9397 27.9417 27.9331 27.9169 27.9064 27.8944 27.8916 27.8843 27.87 27.8591 27.8464 27.8372 27.8384 27.8254 27.8201 27.8134 27.8053 27.7876 27.7809 27.776 27.7661 27.7667 27.7628 27.7521 27.7414 27.7339 27.7277 27.7107 27.7113 27.6991 27.6971 27.6874 27.6728 27.6685 27.6719 27.6595 27.6482 27.6424 27.6371 27.638 27.6235 27.6422 27.6178 27.6129 27.5952 27.5997 27.5986 27.5918 27.5808 27.5783 27.5684 27.5637 27.5874 27.5662 27.5641 27.566 27.5517 27.5414 27.5419 27.5315 27.5421 27.5194 27.5128 27.5258 27.5158 27.521 27.5149 27.5162 27.5043 27.5062 27.5058 27.496 27.4976 27.4936 27.4833 27.4807 27.4895 27.4774 27.4658 27.4704 27.4602 27.47 27.4725 27.4572 27.4592 27.4573 27.4647 27.4522 27.4572 27.4521 27.448 27.4563 27.4555 27.4454 27.4568 27.4416 27.4459 27.4412 27.4468 27.445 27.4466 27.4479 27.4385 27.4435 27.4387 27.4477 27.4327 27.4251 27.4295 27.437 27.4385 27.4506 27.4393 27.4323 27.4323 27.438 27.4402 27.4413 27.4505 27.4418 27.4252 27.4424 27.4317 27.4637 27.459 27.4411 27.4496 27.4407 27.4493 27.4523 27.4487 27.442 27.4418 27.4538 27.4532 27.4753 27.4504 27.4585 27.4602 27.4589 27.4689 27.4629 27.4725 27.4771 27.4779 27.4943 27.4778 27.4703 27.4631 27.4639 27.4723 27.4571 27.4584 27.4656 27.4807 27.4764 27.493 27.4973 27.5273 27.5144 27.5292 27.5325 27.5486 27.5498 27.5589 27.5575 27.5717 27.5695 27.5628 27.5552 27.5728 27.5591 27.5615 27.577 27.5778 27.5975 27.5999 27.6002 27.5947 27.6067 27.6167 27.6276 27.6308 27.6318 27.6339 27.6562 27.6406 27.6565 27.666 27.6682 27.6692 27.675 27.7095 27.682 27.7164 27.7228 27.7152 27.7306 27.7182 27.7404 27.7479 27.7566 27.7663 27.7718 27.7774 27.7796 27.805 27.7929 27.7886 27.8031 27.8013 27.8076 27.8222 27.8271 27.8575 27.8614 27.8489 27.8714 27.8772 27.8806 27.8836 27.8854 27.9223 27.9166 27.9206 27.9349 27.941 27.9411 27.9479 27.9595 27.9781 27.9994 28.0088 28.0084 28.009 28.0443 28.0523 28.0551 28.0648 28.0724 28.0836 28.0807 28.0947 28.1069 28.1336 28.1304 28.1336 28.1507 28.1836 28.1788 28.185 28.1874 28.1988 28.2153 28.2268 28.2587 28.2535 28.2898 28.2959 28.2846 28.2966 28.2922 28.3241 28.3502 28.3592 28.3811 28.3728 28.3821 28.3846 28.396 28.4239 28.461 28.4587 28.4404 28.4586 28.4672 28.5215 28.5189 28.5307 28.5563 28.5641 28.5967 28.6114 28.5983 28.6286 28.6329 28.6523 28.6584 28.6675 28.7091 28.7049 28.7186 28.7341 28.7549 28.7773 28.776 28.7724 28.8253 28.8313 28.881 28.8704 28.8914 28.8429 28.9237 28.9153 28.9388 28.9733 28.982 28.9865 29.0385 29.0252 29.0503 29.0717 29.1005 29.0994 29.144 26.8981 29.1899 29.176 29.2172 29.1978 29.2122 29.2202 29.2421 29.248 29.3025 29.3396 29.3088 29.3353 29.3645 29.4024 29.3967 29.441 29.4425 29.4487 15.5322 15.543 15.5862 15.5683 17.5001 17.4875 17.4924 17.475 17.5153 17.5244 17.5315 17.5252 29.7056 29.7129 29.7422 29.774 29.7862 29.809 29.8333 29.8575 29.8954 29.8873 29.9447 29.9522 29.9856 30.0099 29.9973 21.2483 21.2696 24.2805 24.2626 21.2701 24.189 21.4113 30.1854 30.2707 30.2657 30.2974 30.2912 21.0915 21.2 21.1631 21.3967 21.5544 21.4366 21.9652 30.2763 30.3383 22.0591 22.1244 22.1515 22.1143 21.8267 22.0643 21.7785 22.0642 16.3677 16.6387 16.7336 16.7464 16.7342 16.7091 16.6001 16.6924 16.6424 16.5158 16.2615 16.3044 16.2942 16.1353 16.0604
28.3937 28.3857 28.3741 28.3472 28.3583 28.3308 28.3049 28.2974 28.2873 28.2756 28.2712 28.2573 28.2316 28.2384 28.2255 28.2024 28.1986 28.1705 28.1667 28.1533 28.1555 28.1291 28.1235 28.1083 28.1018 28.0929 28.0734 28.0695 28.0554 28.0444 28.033 28.0157 28.0147 27.9889 27.9919 27.9758 27.9646 27.9658 27.9486 27.935 27.9306 27.9203 27.9168 27.9057 27.8926 27.8937 27.885 27.8674 27.862 27.8558 27.8304 27.8302 27.8171 27.8111 27.8018 27.7951 27.7915 27.7872 27.7737 27.7638 27.7528 27.7521 27.7393 27.73 27.7098 27.7171 27.7118 27.695 27.7037 27.6877 27.6657 27.6716 27.6695 27.6436 27.6374 27.6471 27.6174 27.6258 27.6229 27.6067 27.6123 27.5939 27.6034 27.5822 27.5786 27.5723 27.5732 27.565 27.5652 27.5574 27.5373 27.5373 27.5497 27.5374 27.5193 27.5291 27.518 27.5188 27.5144 27.5069 27.5058 27.5143 27.493 27.4953 27.4819 27.481 27.4743 27.4942 27.4668 27.4767 27.4729 27.4561 27.4477 27.4495 27.4454 27.4456 27.4339 27.4455 27.4472 27.4303 27.437 27.4273 27.4216 27.4437 27.426 27.4233 27.4217 27.4223 27.4272 27.4265 27.4105 27.4197 27.3995 27.4137 27.3969 27.3918 27.3945 27.3962 27.3871 27.4026 27.382 27.3942 27.4049 27.3835 27.3856 27.3964 27.3994 27.3955 27.3973 27.3891 27.3903 27.3858 27.3963 27.3842 27.3738 27.3905 27.3839 27.3757 27.3925 27.382 27.3861 27.3895 27.3836 27.3817 27.3864 27.393 27.3928 27.3934 27.3972 27.3824 27.3981 27.395 27.399 27.3907 27.4054 27.395 27.3928 27.4101 27.4108 27.4032 27.4055 27.4342 27.4134 27.4344 27.4268 27.4077 27.4334 27.4109 27.4212 27.411 27.4111 27.4123 27.4009 27.4043 27.4188 27.4149 27.4217 27.4339 27.4373 27.4431 27.4603 27.4678 27.4751 27.4813 27.4763 27.4925 27.5011 27.5132 27.5137 27.5079 27.5055 27.5097 27.5225 27.5195 27.5139 27.5224 27.522 27.5267 27.533 27.5474 27.548 27.5522 27.5673 27.5576 27.5653 27.5705 27.5823 27.5715 27.5797 27.5983 27.5963 27.6278 27.6004 27.6292 27.6166 27.6326 27.638 27.6532 27.6566 27.6577 27.6667 27.6699 27.6896 27.6899 27.686 27.6947 27.7014 27.717 27.716 27.7307 27.7316 27.754 27.7403 27.7576 27.7437 27.7617 27.768 27.7725 27.7949 27.7893 27.8023 27.8007 27.8327 27.84 27.8387 27.8612 27.8545 27.8648 27.8773 27.8775 27.8866 27.8963 27.9063 27.9209 27.9277 27.9469 27.946 27.9661 27.9686 27.9867 27.9742 28.0033 28.0228 28.033 28.0412 28.045 28.0452 28.073 28.0756 28.0822 28.099 28.109 28.0973 28.1059 28.1254 28.1508 28.1596 28.1507 28.204 28.2139 28.2038 28.2182 28.2383 28.2327 28.2473 28.2563 28.2842 28.2838 28.3185 28.3062 28.3438 28.3323 28.3354 28.3409 28.3549 28.3913 28.3839 28.415 28.4331 28.4277 28.4594 28.4772 28.4882 28.5045 28.5238 28.5505 28.5436 28.5327 28.5526 28.5808 28.5907 28.6014 28.6296 28.6645 28.6449 28.687 28.6703 28.7002 28.707 28.7487 28.7551 28.7681 28.7632 28.7798 28.8037 28.8435 28.8655 28.8614 28.8812 28.8906 28.9036 28.9049 28.9363 28.9442 28.9898 29.0041 28.9825 29.0147 29.0559 29.0283 29.0736 29.0963 29.1141 29.1264 29.1573 29.1651 29.1754 29.1764 29.2164 29.2048 29.2638 29.2853 29.3064 29.29 29.3329 29.3481 29.3406 16.2334 29.4026 15.5184 15.5231 15.516 15.5301 15.5897 17.4124 17.4402 15.4332 17.4939 17.5162 17.5242 17.5113 17.488 29.6583 29.6908 29.6995 29.7296 29.7561 29.7645 29.7759 29.8291 29.8444 29.8517 29.8999 29.8972 29.9311 29.9695 21.048 21.2971 24.3259 24.2744 20.9003 30.0973 24.1754 21.3847 30.2232 30.2193 30.2114 20.8848 21.0391 21.1594 21.1228 21.4913 21.778 21.7014 21.9186 22.079 22.0832 22.0386 22.0518 22.062 22.0859 21.7443 22.1093 21.6912 16.3712 16.3672 16.4867 16.5472 16.6114 16.657 16.6383 16.6645 16.6894 16.5884 16.4776 16.3294 16.3722 16.3575 16.1009 16.0284
28.3313 28.3258 28.3158 28.3046 28.2853 28.2868 28.253 28.2517 28.2515 28.2212 28.2124 28.1995 28.1987 28.1791 28.1602 28.1483 28.1209 28.1326 28.1062 28.1075 28.0882 28.0683 28.0671 28.0534 28.0463 28.0382 28.0246 28.0145 27.995 27.9885 27.978 27.9723 27.9606 27.9532 27.9394 27.9244 27.921 27.8931 27.8957 27.8894 27.8799 27.8644 27.8548 27.8553 27.8528 27.8414 27.8358 27.8212 27.8011 27.7987 27.7891 27.7905 27.7678 27.7708 27.7467 27.7394 27.7393 27.7318 27.7476 27.7175 27.7004 27.6894 27.6862 27.6763 27.6727 27.6604 27.6523 27.6405 27.6352 27.6293 27.6259 27.6214 27.6111 27.6099 27.6061 27.5905 27.5748 27.5793 27.5721 27.5642 27.5703 27.5522 27.5396 27.5443 27.5189 27.5172 27.5122 27.5094 27.5225 27.4913 27.5026 27.4869 27.4831 27.4902 27.4758 27.4751 27.4698 27.4676 27.4636 27.4506 27.4481 27.4475 27.4385 27.4421 27.4345 27.4245 27.4491 27.422 27.4179 27.4222 27.4152 27.4028 27.4016 27.4121 27.3947 27.3938 27.41 27.3873 27.3973 27.3855 27.3796 27.3775 27.3804 27.3687 27.3828 27.3827 27.3679 27.3699 27.3735 27.359 27.3643 27.3646 27.3614 27.3527 27.348 27.3539 27.3491 27.3655 27.365 27.3383 27.3523 27.3455 27.3518 27.3381 27.3424 27.334 27.3283 27.3392 27.3363 27.3329 27.3322 27.338 27.3353 27.3278 27.3366 27.3437 27.332 27.3532 27.3374 27.3376 27.3417 27.3525 27.3509 27.3386 27.3431 27.3475 27.3439 27.3451 27.3419 27.3384 27.3587 27.3556 27.3473 27.3401 27.3446 27.3591 27.3571 27.3702 27.3588 27.364 27.3521 27.3685 27.3765 27.3693 27.3785 27.3625 27.3627 27.3591 27.3645 27.3573 27.3514 27.3524 27.3555 27.3651 27.3816 27.3929 27.3868 27.3974 27.4114 27.411 27.4261 27.416 27.4288 27.4328 27.4465 27.4425 27.4468 27.4702 27.4564 27.455 27.4513 27.4534 27.4584 27.4617 27.4777 27.4691 27.4888 27.4801 27.4797 27.4997 27.4903 27.5089 27.5185 27.5154 27.5153 27.5137 27.55 27.5375 27.5369 27.5549 27.5598 27.5518 27.5531 27.5643 27.5649 27.579 27.588 27.5966 27.5923 27.6086 27.6016 27.608 27.6373 27.6352 27.6491 27.6524 27.6611 27.6742 27.671 27.6781 27.6858 27.7161 27.7219 27.7029 27.6855 27.7082 27.7308 27.7303 27.7432 27.7397 27.7516 27.7891 27.7717 27.7766 27.7941 27.8036 27.818 27.8148 27.821 27.8497 27.8413 27.8558 27.8768 27.8764 27.887 27.8932 27.9018 27.9051 27.9269 27.928 27.9347 27.9602 27.9807 27.9608 27.9961 27.9947 27.9948 28.0154 28.0321 28.0114 28.0352 28.056 28.0607 28.0781 28.1032 28.0976 28.1244 28.1408 28.1348 28.1419 28.1493 28.1587 28.1764 28.2044 28.2075 28.2057 28.2346 28.2517 28.2713 28.2582 28.2789 28.2774 28.2861 28.2758 28.3082 28.3236 28.3405 28.3778 28.3742 28.3993 28.394 28.4122 28.4313 28.4289 28.4544 28.4736 28.49 28.5031 28.5151 28.5369 28.5292 28.5553 28.5715 28.5976 28.5881 28.6159 28.6159 28.6515 28.6573 28.6783 28.6732 28.6931 28.7406 28.7417 28.7688 28.7763 28.7977 28.8035 28.8314 28.836 28.8505 28.8691 28.8778 28.8853 28.8996 28.93 28.9495 28.9608 28.9955 29.0024 29.0108 28.986 29.0507 29.0803 29.0915 29.1026 29.1207 29.1332 29.1328 29.1635 29.2121 29.2023 29.223 29.2538 29.2864 29.2623 16.2372 16.0889 15.6268 15.4904 15.4953 15.4905 15.4212 15.4911 17.3952 15.4037 15.4212 17.4341 17.4684 17.4946 17.4942 17.4353 17.4465 17.4217 29.6308 29.668 29.7107 29.7227 29.7349 29.7562 29.7754 20.4156 20.4523 29.8371 29.8515 29.8578 20.9863 21.2923 24.2945 21.2994 20.959 24.1749 21.3752 30.0386 30.0891 30.1495 20.8332 20.9115 21.1085 21.2553 21.2844 21.5303 21.9918 21.2181 21.7107 21.9736 22.0435 22.0107 21.9575 21.9874 21.764 21.4659 22.0119 21.863 22.045 16.3464 16.3916 16.483 16.5037 16.5863 16.578 16.6152 16.6541 16.6033 16.3972 16.3458 16.3881 16.191 16.1647 16.0828
28.2865 28.2697 28.2541 28.2507 28.232 28.22 28.2094 28.2055 28.1691 28.1765 28.1518 28.1375 28.1255 28.1153 28.1184 28.0888 28.0842 28.0693 28.0669 28.0527 28.0547 28.0258 28.0127 28.0099 27.9857 27.9875 27.9764 27.9727 27.9482 27.9369 27.9233 27.9119 27.9062 27.8931 27.8791 27.8768 27.8545 27.8577 27.8453 27.83 27.8339 27.8177 27.8116 27.8024 27.7968 27.7827 27.7669 27.7632 27.7648 27.7497 27.7506 27.7405 27.7142 27.7042 27.7035 27.6864 27.7145 27.6709 27.6744 27.6677 27.6442 27.6421 27.6448 27.6206 27.6243 27.6176 27.5966 27.5945 27.589 27.5742 27.5677 27.5655 27.57 27.5517 27.5483 27.5408 27.5421 27.5249 27.5223 27.5176 27.5069 27.4977 27.5042 27.4929 27.4828 27.4821 27.4726 27.4589 27.4629 27.4487 27.4499 27.4399 27.4333 27.439 27.4286 27.4389 27.4179 27.4155 27.4092 27.4077 27.4025 27.4062 27.3931 27.3851 27.3908 27.3764 27.3698 27.3775 27.3715 27.362 27.3705 27.3562 27.3599 27.3639 27.355 27.3577 27.3598 27.346 27.3386 27.3343 27.3316 27.3497 27.3463 27.3268 27.3157 27.3129 27.3149 27.3239 27.3085 27.3078 27.3184 27.3049 27.3 27.3167 27.3031 27.3026 27.303 27.3092 27.2931 27.295 27.3051 27.3041 27.3002 27.2918 27.2972 27.3074 27.3007 27.2851 27.2991 27.2849 27.2865 27.2844 27.2933 27.2946 27.2858 27.2786 27.2854 27.2823 27.2881 27.2821 27.2854 27.2831 27.2997 27.2997 27.2945 27.295 27.3027 27.3005 27.2954 27.297 27.3068 27.3042 27.3044 27.301 27.3111 27.3248 27.3064 27.3072 27.3041 27.3108 27.3113 27.3078 27.3311 27.3126 27.3078 27.3018 27.2995 27.2988 27.296 27.3024 27.307 27.3173 27.3243 27.3387 27.3379 27.3546 27.3652 27.3556 27.3669 27.3762 27.3795 27.375 27.3808 27.3958 27.3936 27.3832 27.3978 27.4053 27.391 27.401 27.4059 27.4069 27.4093 27.417 27.4315 27.4336 27.4234 27.4426 27.4346 27.4313 27.4494 27.4604 27.4551 27.478 27.4721 27.4686 27.4815 27.4877 27.4967 27.501 27.4954 27.5081 27.5121 27.5092 27.5168 27.5359 27.5324 27.5538 27.5448 27.5599 27.5534 27.5699 27.558 27.5728 27.5862 27.5976 27.6067 27.6032 27.6144 27.6107 27.6282 27.636 27.6386 27.6641 27.6634 27.6508 27.6517 27.6918 27.6899 27.6955 27.7163 27.7205 27.7329 27.7267 27.7441 27.7389 27.7551 27.7773 27.7717 27.7896 27.7806 27.8048 27.8093 27.8237 27.8367 27.7968 27.8438 27.8623 27.864 27.8833 27.8912 27.901 27.905 27.9353 27.9236 27.9512 27.9577 27.9705 27.9521 27.9675 27.9952 28.0179 28.01 28.0342 28.0373 28.0538 28.0361 28.0734 28.085 28.0987 28.1001 28.1097 28.1285 28.1351 28.1268 28.1826 28.1578 28.1845 28.1855 28.2202 28.2286 28.2413 28.247 28.2492 28.2543 28.2542 28.2835 28.2927 28.3331 28.3283 28.3284 28.3572 28.352 28.4005 28.3981 28.4203 28.4353 28.4678 28.4672 28.4786 28.4863 28.4886 28.5108 28.5373 28.5607 28.5646 28.5751 28.5957 28.6084 28.6292 28.6469 28.6455 28.6859 28.6852 28.7155 28.7067 28.7263 28.7093 28.7574 28.7884 28.8045 28.8126 28.82 28.8487 28.8698 28.8896 28.8926 28.8933 28.9186 28.9589 28.9634 26.8073 29.0063 29.0235 29.0462 29.0671 29.0811 29.0744 29.0942 29.0945 29.1624 29.1492 29.1939 29.1853 17.8632 17.8343 16.2758 16.0734 15.5384 15.4612 15.4767 15.428 15.3926 15.4366 15.4519 15.3594 15.3875 15.3625 17.4485 17.4695 17.4691 17.3798 17.4032 17.4266 29.5992 29.6197 29.6408 29.6666 29.6944 29.7054 29.6995 20.4168 20.4581 20.5055 20.5297 20.8112 20.8221 21.2185 21.3154 21.3184 21.1906 21.264 21.2573 20.9952 20.9314 30.0898 30.0872 30.1025 21.2025 21.2012 21.4972 21.4684 22.0483 22.1211 21.6108 21.8695 21.9013 21.8146 21.785 21.7913 21.4463 21.7225 21.8514 21.8613 16.3481 16.3339 16.3632 16.36 16.4151 16.5122 16.5143 16.5484 16.5564 16.3886 16.3557 16.3256 16.3134 16.2191 16.1791 16.1722
28.2358 28.2212 28.2192 28.1804 28.1865 28.1678 28.1624 28.1362 28.1556 28.1151 28.1142 28.0912 28.0867 28.0589 28.0579 28.0669 28.031 28.0196 28.0103 27.9999 27.9905 27.9735 27.9532 27.9622 27.9401 27.9342 27.9088 27.9116 27.9247 27.884 27.874 27.868 27.8536 27.8445 27.8363 27.8206 27.8156 27.8 27.7812 27.7865 27.7731 27.7678 27.7588 27.7477 27.7322 27.7361 27.7484 27.7215 27.7125 27.6987 27.6865 27.68 27.6696 27.6648 27.6663 27.651 27.6319 27.6484 27.6182 27.6108 27.6135 27.5873 27.5908 27.5743 27.5671 27.5714 27.5622 27.5475 27.5344 27.5316 27.5318 27.5162 27.5055 27.5183 27.5049 27.4945 27.4849 27.4815 27.4763 27.4654 27.4544 27.4593 27.4451 27.4542 27.45 27.4357 27.4323 27.4195 27.4087 27.4167 27.4086 27.4029 27.3866 27.3843 27.3841 27.3886 27.3777 27.3689 27.3617 27.3496 27.3576 27.359 27.3502 27.3404 27.3359 27.3598 27.3304 27.324 27.3252 27.328 27.3189 27.3134 27.3095 27.3058 27.3128 27.2987 27.3029 27.2997 27.288 27.2865 27.2855 27.2833 27.2762 27.2823 27.275 27.2756 27.2768 27.2565 27.2617 27.2616 27.267 27.2605 27.2635 27.2552 27.2569 27.2644 27.2548 27.2551 27.2595 27.2503 27.2502 27.2343 27.2524 27.2477 27.2569 27.2364 27.2466 27.2468 27.243 27.2506 27.2319 27.2377 27.2478 27.2331 27.2454 27.2465 27.2383 27.2348 27.2487 27.2389 27.2395 27.2386 27.2416 27.2352 27.2659 27.2357 27.2548 27.2442 27.2546 27.2476 27.2458 27.2506 27.2468 27.2869 27.2515 27.2587 27.2576 27.2579 27.2561 27.2705 27.2599 27.2684 27.2502 27.2492 27.2408 27.2464 27.2502 27.2526 27.2557 27.2753 27.2699 27.2797 27.2936 27.3054 27.3006 27.3155 27.3106 27.3194 27.3158 27.3197 27.3383 27.3276 27.3233 27.3336 27.3322 27.3368 27.3347 27.3419 27.3582 27.3461 27.345 27.3588 27.3612 27.3757 27.3853 27.3796 27.4038 27.3795 27.4045 27.3994 27.3856 27.4002 27.4076 27.4116 27.4133 27.4161 27.4312 27.4282 27.4341 27.4395 27.4484 27.456 27.4689 27.4734 27.4752 27.4883 27.4929 27.4921 27.5028 27.5129 27.5102 27.5154 27.5317 27.5275 27.5251 27.5403 27.5452 27.563 27.5754 27.5812 27.571 27.5949 27.5757 27.6203 27.6041 27.618 27.6104 27.6071 27.6418 27.6583 27.6602 27.6532 27.6683 27.6733 27.6889 27.6957 27.6999 27.7238 27.7399 27.7204 27.736 27.7528 27.758 27.7642 27.7813 27.7862 27.8026 27.811 27.7978 27.8146 27.8303 27.8294 27.8626 27.8692 27.8667 27.9118 27.8942 27.9134 27.9066 27.9515 27.9448 27.9231 27.9461 27.9642 27.9795 27.9969 28.0004 28.0233 28.0369 28.0453 28.0451 28.0536 28.0704 28.0884 28.0806 28.097 28.1147 28.135 28.1372 28.1678 28.169 25.9787 28.2158 28.2001 28.1973 28.2059 28.2205 28.2372 28.2381 28.2637 28.2964 28.3021 28.326 28.3243 28.3601 28.3635 28.3822 28.41 28.4152 28.4146 28.4313 28.4596 28.4671 28.4733 28.4945 28.4696 28.5092 28.5211 28.5498 28.5603 28.5979 28.6031 28.6347 28.6236 28.6486 28.6802 28.686 28.6951 28.6911 28.7181 28.7417 28.7487 28.7707 28.783 28.8115 28.8254 28.8331 28.8425 28.8784 28.9029 28.8901 26.8046 15.9675 28.9461 28.9767 28.9952 29.0236 29.0496 29.0631 29.0483 29.0663 29.0903 29.1187 16.0672 15.6416 16.8271 15.8659 15.6675 15.42 15.4297 15.4443 15.4381 15.351 15.4352 15.3855 15.3522 15.3699 15.3434 17.3601 17.4167 17.4226 17.3968 17.3771 17.4124 29.5109 29.5601 29.5978 29.6082 29.6412 29.6432 29.6502 29.6579 20.4335 20.4788 20.5288 20.6523 20.7756 20.7895 20.9613 21.0975 20.9621 20.9528 21.1163 20.918 21.0012 20.853 29.9831 30.0518 30.0445 21.0689 21.7664 21.5156 22.118 22.1479 21.5102 21.7766 21.7869 21.824 21.5297 21.6514 21.3421 21.7143 21.8332 21.9176 16.3341 16.3104 16.3084 16.3186 16.3507 16.3946 16.4307 16.4565 16.4355 16.4371 16.1747 16.2419 16.2607 16.1575 16.1341 16.0671
28.1762 28.1653 28.167 28.1413 28.1313 28.1047 28.1133 28.0896 28.0681 28.0654 28.0461 28.0409 28.0203 28.0173 28.0031 27.988 27.9849 27.9687 27.9721 27.9482 27.9389 27.9337 27.9109 27.9226 27.8881 27.8905 27.8747 27.863 27.8458 27.8368 27.8203 27.8205 27.7991 27.7939 27.7857 27.7825 27.7631 27.7435 27.7387 27.7374 27.72 27.7123 27.7131 27.7038 27.6841 27.693 27.6751 27.6665 27.6611 27.6506 27.6417 27.6394 27.622 27.6208 27.6061 27.5989 27.5828 27.5776 27.578 27.5636 27.5498 27.5465 27.5389 27.5279 27.5201 27.5077 27.5025 27.5012 27.4991 27.4775 27.4813 27.4705 27.4688 27.4558 27.4409 27.4371 27.4415 27.4244 27.4244 27.4238 27.4175 27.4033 27.4238 27.3908 27.3836 27.3994 27.3724 27.3646 27.3607 27.3554 27.3438 27.3585 27.347 27.336 27.3423 27.3196 27.3245 27.3164 27.3164 27.3178 27.3153 27.3022 27.2929 27.2849 27.2883 27.288 27.2997 27.2844 27.2682 27.2769 27.2799 27.2571 27.2568 27.258 27.2537 27.2522 27.2633 27.2459 27.2431 27.2436 27.2483 27.2424 27.2375 27.2238 27.2197 27.2233 27.2241 27.2252 27.2152 27.2196 27.2242 27.2082 27.2136 27.2132 27.2102 27.2007 27.2021 27.207 27.2047 27.2001 27.21 27.2013 27.2038 27.2127 27.191 27.1978 27.2035 27.19 27.1914 27.1918 27.1959 27.1959 27.199 27.1901 27.1995 27.1957 27.1895 27.1942 27.1941 27.2058 27.1957 27.1989 27.2012 27.2018 27.1886 27.1946 27.1931 27.1931 27.1946 27.2099 27.2135 27.2027 27.216 27.223 27.2019 27.2224 27.2227 27.2164 27.1999 27.1922 27.1946 27.1916 27.1888 27.196 27.1967 27.2059 27.2104 27.216 27.2272 27.2314 27.2477 27.2506 27.2694 27.2651 27.2554 27.2529 27.2512 27.2504 27.2631 27.2682 27.2673 27.287 27.2756 27.2801 27.2846 27.2992 27.2897 27.3083 27.3071 27.2987 27.3132 27.3033 27.308 27.3193 27.3309 27.3255 27.3375 27.3485 27.3632 27.3591 27.3646 27.3661 27.3775 27.3631 27.3691 27.3791 27.3789 27.3859 27.3838 27.4017 27.4009 27.401 27.399 27.4195 27.4256 27.4292 27.4367 27.4587 27.4626 27.4596 27.4733 27.4763 27.4766 27.4822 27.4955 27.5059 27.5014 27.5238 27.5027 27.525 27.5195 27.5391 27.5316 27.5628 27.5572 27.5767 27.564 27.5627 27.5625 27.5839 27.6009 27.6024 27.6187 27.6207 27.6409 27.6434 27.6561 27.6529 27.6664 27.6596 27.6851 27.6923 27.7028 27.7334 27.7275 27.7372 27.7432 27.7498 27.7337 27.7749 27.7916 27.792 27.797 27.817 27.83 27.822 27.8393 27.864 27.8674 27.8779 27.8811 27.9037 27.9129 27.9184 27.9355 27.9492 27.9563 27.9428 27.9627 27.9846 28.0011 28.0127 28.0228 28.0304 28.0558 28.0644 28.0857 28.0812 28.094 28.102 28.1219 28.0999 28.1496 28.1616 28.1653 28.17 28.1591 28.2017 28.2289 28.2222 28.2423 28.2541 28.278 28.2855 28.2907 28.2871 28.3363 28.3501 28.3494 28.374 28.3893 28.3764 28.4274 28.4268 28.4427 28.4496 28.4777 28.4914 28.5019 28.5128 28.5485 28.5486 28.5772 28.5654 28.5688 28.6116 28.5911 28.6355 28.6544 28.6491 28.6875 28.7071 28.7001 28.7393 28.7426 28.7707 28.7709 28.808 28.8132 28.8314 28.8344 26.7906 26.7411 15.9408 28.9359 28.9363 28.9576 28.9658 29.0151 29.0168 29.0268 29.034 15.9577 15.6453 15.5605 15.7086 15.7011 15.6191 15.4902 15.465 15.4252 15.394 15.3745 15.4439 15.3436 15.3568 15.3805 15.3532 15.3585 17.3816 17.423 17.3689 17.3092 17.4096 29.4748 29.528 29.5286 29.5533 29.5571 29.6041 29.5862 29.5898 29.6005 29.6553 29.6853 20.6428 20.6653 16.5216 20.8425 20.9692 20.8753 16.5526 21.1313 21.0206 21.0511 20.8657 20.8394 29.9892 30.0174 20.9724 21.9811 21.9996 22.088 22.1628 21.8866 21.7377 21.6961 21.5129 21.4014 21.4994 21.2767 21.7763 21.9328 21.6894 21.6384 16.3162 16.279 16.3011 16.3283 16.3216 16.3293 16.3745 16.41 16.0518 16.1447 16.1418 16.1834 16.1506 16.1265 16.1023
28.1343 28.1208 28.1007 28.0914 28.0699 28.057 28.0466 28.0458 28.0351 28.0197 28.0055 27.9892 27.976 27.9533 27.9579 27.9346 27.9326 27.9306 27.9099 27.8977 27.8801 27.8823 27.8538 27.8454 27.8333 27.8267 27.8185 27.7988 27.7957 27.7732 27.7755 27.756 27.7591 27.7354 27.7327 27.7183 27.7047 27.7028 27.6962 27.68 27.6878 27.6757 27.6647 27.6496 27.6432 27.6501 27.6298 27.614 27.6156 27.6036 27.5973 27.5851 27.5864 27.5725 27.5598 27.5472 27.5321 27.5382 27.5256 27.5204 27.5103 27.5028 27.4841 27.4901 27.4761 27.467 27.4564 27.4492 27.4669 27.4358 27.4316 27.4234 27.419 27.4078 27.4112 27.3994 27.3931 27.3811 27.384 27.3711 27.3657 27.3571 27.3549 27.3422 27.33 27.3372 27.3298 27.3188 27.3347 27.3073 27.306 27.2958 27.305 27.2856 27.2851 27.2741 27.2743 27.2715 27.2719 27.2585 27.2599 27.247 27.2403 27.2441 27.2405 27.2356 27.2373 27.2244 27.2365 27.2163 27.2165 27.2281 27.2086 27.2128 27.2009 27.2016 27.2026 27.1967 27.1939 27.1976 27.1886 27.1864 27.1878 27.1811 27.1888 27.1762 27.1715 27.165 27.1717 27.1888 27.1637 27.1826 27.1665 27.1619 27.1584 27.1608 27.1726 27.1661 27.1514 27.1507 27.1598 27.1489 27.1684 27.1501 27.1457 27.1534 27.1648 27.1415 27.1415 27.1386 27.1478 27.1447 27.1461 27.1468 27.159 27.1454 27.1474 27.1629 27.1501 27.1349 27.1464 27.1472 27.157 27.154 27.1455 27.1459 27.1484 27.1387 27.1572 27.1516 27.1634 27.16 27.1571 27.1576 27.1528 27.1405 27.1519 27.148 27.1373 27.1555 27.1439 27.1481 27.1578 27.1529 27.1609 27.1695 27.1886 27.1955 27.2006 27.1988 27.2023 27.2101 27.2203 27.2052 27.2067 27.1939 27.2068 27.2093 27.2081 27.2319 27.2347 27.2491 27.2317 27.2367 27.2445 27.2497 27.2547 27.2486 27.2489 27.2493 27.2571 27.279 27.2664 27.2672 27.2744 27.2784 27.2947 27.2907 27.3028 27.2993 27.2907 27.3105 27.3007 27.3129 27.3187 27.33 27.35 27.3216 27.3415 27.3523 27.3525 27.3559 27.3623 27.375 27.3616 27.3839 27.3718 27.3947 27.4123 27.4036 27.3969 27.4218 27.4154 27.4467 27.4374 27.4513 27.4758 27.4586 27.4646 27.4823 27.4832 27.4858 27.4778 27.4945 27.5046 27.5173 27.5332 27.5092 27.5147 27.52 27.5571 27.5435 27.5659 27.5886 27.5865 27.5768 27.5998 27.6109 27.62 27.6358 27.6388 27.6317 27.6609 27.6534 27.6854 27.6793 27.7035 27.701 27.7094 27.7361 27.7304 27.7446 27.7637 27.7837 27.7771 27.7886 27.8024 27.809 27.8279 27.8232 27.8419 27.8544 27.8366 27.8705 27.8787 27.9099 27.9024 27.9149 27.9417 27.9494 27.953 27.9707 27.984 28.0027 27.9953 27.9797 28.0429 28.0121 28.0526 28.0575 28.064 28.0885 28.1059 28.1159 28.1357 28.1263 28.1349 28.1378 28.1489 28.1726 28.1832 28.2002 28.2023 28.1999 28.2561 28.2551 28.2739 28.2773 28.3044 28.3053 28.3196 28.3376 28.339 28.3638 28.3736 28.4082 28.4132 28.4377 28.4477 28.4587 28.4733 28.4829 28.5032 28.5139 28.5204 28.5593 28.5654 28.5713 28.597 28.6234 28.6302 28.6483 28.667 28.6994 28.6804 28.7339 28.7361 28.7465 28.7677 28.7809 28.8058 28.8 15.5625 15.9341 28.8525 28.8902 28.8978 28.9376 28.9362 18.1186 18.0951 15.8829 15.9043 15.5859 15.559 15.6202 15.6625 15.533 15.5119 15.4838 15.4412 15.3792 15.4176 15.413 15.3345 15.4145 15.3892 15.3861 16.9383 16.9301 17.0715 17.2999 17.3256 17.39 29.3682 17.4222 29.4721 29.5033 29.5104 29.5194 29.5634 29.5687 29.5888 29.5585 16.1483 20.5762 20.6104 16.5046 16.4995 20.7283 16.3266 16.2374 15.715 15.7589 20.9301 20.8437 20.829 29.9349 29.9505 20.9189 21.9017 21.8401 22.0494 22.1267 21.5363 21.6781 21.5815 21.4747 21.5778 21.579 20.8633 21.9678 21.8674 21.6112 21.5052 16.2763 16.2526 16.2965 16.3131 16.3015 16.2565 16.3285 16.3441 16.0302 16.0823 16.1284 16.1822 16.1071 16.0372 16.017
28.0734 28.0616 28.0448 28.0428 28.031 28.0027 27.9983 27.9935 27.9682 27.9714 27.9497 27.9414 27.9337 27.9124 27.9066 27.8869 27.8768 27.8718 27.8549 27.8467 27.8311 27.8206 27.8137 27.7965 27.7884 27.7761 27.7628 27.7557 27.7406 27.739 27.7195 27.7016 27.7047 27.6944 27.6819 27.6739 27.6773 27.6527 27.6381 27.6225 27.6201 27.6234 27.6063 27.5892 27.5952 27.5927 27.5783 27.5852 27.5587 27.5598 27.5496 27.5285 27.528 27.5259 27.5081 27.4931 27.5012 27.5007 27.4746 27.4709 27.4626 27.4655 27.4466 27.4529 27.4297 27.4239 27.4168 27.3985 27.3923 27.388 27.3836 27.38 27.3818 27.3561 27.3454 27.3476 27.3422 27.334 27.3251 27.3187 27.3173 27.3241 27.3019 27.2998 27.2953 27.2808 27.2896 27.2749 27.2782 27.2797 27.2584 27.2571 27.246 27.2458 27.24 27.2435 27.2307 27.2269 27.2269 27.2241 27.2053 27.2018 27.2035 27.2049 27.1856 27.1852 27.1879 27.1854 27.1698 27.1789 27.1658 27.1723 27.1683 27.1708 27.1574 27.1537 27.1495 27.1456 27.1477 27.1542 27.139 27.1321 27.1461 27.1306 27.1306 27.1309 27.1343 27.1441 27.1237 27.1178 27.1203 27.1179 27.1217 27.1113 27.1099 27.1225 27.1048 27.1202 27.1029 27.0998 27.1 27.107 27.1015 27.1061 27.1003 27.1015 27.0995 27.0993 27.0947 27.0978 27.1025 27.0971 27.0966 27.0951 27.0994 27.0992 27.0903 27.1066 27.1241 27.0989 27.1046 27.1035 27.114 27.0949 27.0999 27.0956 27.101 27.0999 27.1078 27.1261 27.1097 27.1144 27.1045 27.0993 27.0985 27.0942 27.091 27.0895 27.0918 27.099 27.1015 27.1151 27.1234 27.1236 27.1344 27.1439 27.1449 27.1551 27.1594 27.1664 27.142 27.1668 27.1631 27.1554 27.1637 27.1608 27.1565 27.1663 27.1665 27.1797 27.1973 27.1855 27.2006 27.1856 27.1837 27.1853 27.2132 27.1973 27.2082 27.2106 27.2072 27.2139 27.2243 27.2319 27.2334 27.2361 27.2318 27.2488 27.2474 27.2667 27.2543 27.2667 27.2658 27.2691 27.2663 27.2783 27.2825 27.2887 27.2925 27.2968 27.2993 27.3194 27.3012 27.3257 27.3441 27.3248 27.3555 27.3498 27.3573 27.3771 27.3802 27.3918 27.3761 27.3942 27.3867 27.4113 27.4117 27.4068 27.4124 27.4161 27.4426 27.4268 27.4441 27.4499 27.4532 27.4711 27.4885 27.4746 27.4754 27.4765 27.4813 27.5017 27.5233 27.5289 27.5475 27.5341 27.5568 27.5599 27.5887 27.5918 27.5783 27.6024 27.5977 27.6101 27.636 27.6436 27.6448 27.65 27.6636 27.6847 27.6922 27.6755 27.7075 27.7023 27.7107 27.7532 27.745 27.7658 27.7599 27.7748 27.7859 27.7921 27.8259 27.824 27.8347 27.8368 27.8772 27.8661 27.8716 27.882 27.8937 27.9163 27.9325 27.9237 27.9506 27.9538 27.9728 27.9832 27.9893 28.0062 28.0263 28.027 28.0628 28.057 28.0787 28.0918 28.0856 28.0665 28.1034 28.126 28.1441 28.1597 28.1581 28.1799 28.1652 28.2083 28.2025 28.2371 28.2402 28.2331 28.2768 28.3057 28.31 28.3266 28.3214 28.3299 28.3541 28.3866 28.3896 28.3984 28.4296 28.4389 28.4308 28.4793 28.4703 28.5066 28.4937 28.5372 28.5446 28.5482 28.5776 28.5944 28.6213 28.6266 28.6463 28.6624 28.6966 28.6976 28.7058 26.6814 26.715 26.7277 26.7545 15.9107 28.8154 18.1245 18.1384 28.8605 18.0939 18.101 18.095 15.8724 15.8763 15.6132 15.5829 15.5331 15.5321 15.518 15.5291 15.5223 15.489 15.3735 15.4111 15.4616 15.3961 15.5292 15.766 16.3469 17.3088 16.877 16.9202 16.9575 16.953 17.078 17.3363 17.1652 29.4055 29.423 29.4562 29.476 29.4834 29.5078 29.516 16.893 16.1613 20.5578 20.5004 16.5615 16.4901 16.4134 16.1562 15.7268 15.7355 15.761 15.8532 15.7187 15.7154 13.5456 13.551 20.8091 20.822 20.9215 21.8889 21.9313 21.7414 21.9024 21.219 21.5478 21.6668 21.6726 20.6883 21.2733 21.5161 21.5987 21.4836 21.1869 16.2909 16.3435 16.3222 16.2982 16.2165 16.2848 16.3008 16.0074 16.0447 16.1058 16.1566 16.1159 15.9278 15.3376
28.0318 28.0111 27.9966 27.9832 27.9713 27.9682 27.9531 27.9365 27.9297 27.9179 27.9055 27.8909 27.875 27.8615 27.835 27.8441 27.8342 27.8223 27.8041 27.7817 27.7775 27.7638 27.7589 27.7368 27.7347 27.7176 27.7173 27.7112 27.698 27.6932 27.6817 27.6645 27.6496 27.6478 27.6293 27.6471 27.6097 27.6049 27.5934 27.5949 27.5732 27.5684 27.5672 27.5468 27.5391 27.5379 27.5363 27.5244 27.5158 27.5029 27.4964 27.4855 27.4711 27.4663 27.4743 27.4595 27.4397 27.4448 27.4313 27.4378 27.4065 27.4035 27.3966 27.4 27.3739 27.3906 27.3632 27.3684 27.3392 27.3487 27.3325 27.3302 27.3213 27.3218 27.3018 27.3135 27.3115 27.2852 27.2757 27.2907 27.2695 27.2523 27.2512 27.2563 27.2461 27.2334 27.2251 27.224 27.2274 27.2121 27.2063 27.2011 27.2001 27.2047 27.184 27.1881 27.1861 27.1793 27.1669 27.1618 27.1624 27.1545 27.1551 27.1424 27.1499 27.1413 27.1464 27.1349 27.1298 27.1255 27.1228 27.1185 27.1151 27.1324 27.1124 27.1136 27.1163 27.1045 27.1045 27.1119 27.0936 27.092 27.0821 27.0849 27.082 27.0794 27.0734 27.069 27.0774 27.0785 27.0704 27.0834 27.0686 27.0667 27.0637 27.0615 27.0806 27.0526 27.0562 27.0522 27.0501 27.0501 27.0605 27.0674 27.0676 27.0645 27.0581 27.0573 27.0531 27.0518 27.0499 27.0633 27.0472 27.0562 27.0672 27.0633 27.0458 27.0653 27.0482 27.0635 27.0528 27.0442 27.0546 27.0501 27.0517 27.0658 27.0566 27.0557 27.0505 27.0466 27.0503 27.0405 27.0367 27.0449 27.0426 27.0533 27.0461 27.0432 27.0626 27.0609 27.0666 27.0741 27.0922 27.0946 27.0947 27.1091 27.1134 27.1177 27.1158 27.1035 27.1047 27.1067 27.1072 27.1109 27.1264 27.1229 27.1194 27.1214 27.124 27.1332 27.1433 27.145 27.1393 27.142 27.1582 27.1504 27.1452 27.1522 27.1555 27.156 27.1758 27.1868 27.169 27.1881 27.1723 27.1851 27.1935 27.1825 27.1975 27.1945 27.1967 27.2053 27.2252 27.2228 27.2356 27.2383 27.2286 27.2558 27.2343 27.2511 27.263 27.2497 27.2689 27.2764 27.2618 27.2872 27.2858 27.3083 27.3177 27.3125 27.3243 27.3349 27.3228 27.3194 27.3392 27.347 27.3625 27.3689 27.3725 27.3747 27.3795 27.3838 27.3946 27.4028 27.4064 27.4107 27.4368 27.4502 27.4431 27.4326 27.4401 27.4479 27.4703 27.4771 27.4807 27.5041 27.5027 27.5053 27.5131 27.536 27.5372 27.5645 27.5678 27.5693 27.5643 27.5913 27.5922 27.5975 27.6173 27.6286 27.6318 27.625 27.6649 27.6673 27.6555 27.6938 27.6947 27.7183 27.7074 27.7336 27.7369 27.7393 27.7501 27.7568 27.7912 27.7953 27.808 27.8044 27.8361 27.8437 27.8447 27.8537 27.8526 27.8726 27.8795 27.8829 27.9168 27.9174 27.9443 27.9492 27.9867 27.9853 27.991 27.9906 28.0231 28.0345 28.0311 28.0354 28.0566 28.0745 28.062 28.1051 28.1156 28.1197 28.114 28.1543 28.1594 28.1615 28.2056 28.2049 28.2138 28.2279 28.2252 28.2503 28.2503 28.2835 28.3186 28.3047 28.3231 28.3668 28.3618 28.3756 28.4166 28.4092 28.4335 28.443 28.4395 28.4827 28.4984 28.5033 28.519 28.5421 28.5436 28.5618 28.5923 28.6168 28.6212 28.6136 26.6085 26.6742 26.7832 26.805 26.7808 15.9037 26.7041 15.6283 18.1468 18.0577 18.0872 18.0525 18.0399 15.8608 15.8863 15.6117 15.5321 15.4577 15.46 15.5389 15.5492 15.5493 15.3921 15.414 15.4407 15.5041 15.5763 16.1676 16.2381 16.3796 16.6 16.6579 16.7854 16.8442 16.8526 16.9916 16.9848 16.5717 18.0072 29.3701 29.3982 29.411 29.4581 29.4644 29.4676 29.4252 16.221 16.1463 16.6742 16.8705 16.4679 16.4556 15.8732 15.757 15.7379 15.7614 15.893 15.7685 13.5541 13.5481 13.5865 20.7763 20.7224 20.7551 21.0829 21.3562 21.4518 21.7964 21.2302 21.5034 21.6204 21.6624 20.8862 20.3285 16.3314 21.7094 16.3365 16.2817 16.3766 16.3707 16.3813 16.3193 16.2269 16.2451 16.0766 16.0213 15.3345 16.0926 16.1368 15.9975 15.9065 15.0785
27.972 27.959 27.9458 27.9463 27.9146 27.9209 27.9085 27.8894 27.9021 27.8631 27.8411 27.8411 27.8223 27.8033 27.8101 27.7977 27.7791 27.7754 27.7549 27.7457 27.7337 27.7105 27.7052 27.6898 27.6962 27.6828 27.6631 27.6527 27.6471 27.635 27.624 27.606 27.6011 27.6039 27.5868 27.5886 27.5664 27.5699 27.5415 27.5526 27.5267 27.524 27.5064 27.507 27.4904 27.5068 27.4783 27.4665 27.4661 27.4516 27.4386 27.4339 27.4279 27.4207 27.428 27.3971 27.4008 27.3827 27.3723 27.3675 27.3677 27.3546 27.3424 27.3485 27.3278 27.3248 27.3157 27.3025 27.3046 27.2866 27.2819 27.2896 27.2766 27.2597 27.2518 27.2589 27.2453 27.2457 27.2392 27.2208 27.217 27.2164 27.1991 27.2103 27.2094 27.1935 27.1898 27.1845 27.1633 27.1676 27.1714 27.1483 27.1556 27.1437 27.1401 27.1513 27.1305 27.1422 27.115 27.1164 27.1151 27.1108 27.0997 27.1069 27.1007 27.1 27.0892 27.0926 27.0798 27.082 27.0863 27.0615 27.0878 27.0629 27.0635 27.056 27.0646 27.0746 27.0563 27.0496 27.0467 27.0506 27.0419 27.0436 27.0344 27.0297 27.0321 27.0303 27.0328 27.026 27.0267 27.0259 27.0192 27.0203 27.0271 27.0142 27.0237 27.0091 27.0103 27.0104 27.0084 27.0239 27.0206 27.0101 27.0042 27.0182 27.0103 27.0088 27.0118 26.9987 27.0029 27.0026 27.006 27.0063 27.0123 27.0057 27.005 27.0072 27.0173 26.9951 26.9926 27.0065 27.0145 27.0034 27.0063 27.0017 26.9984 26.9918 26.9854 26.9968 26.9941 26.9797 27.0023 26.9946 27.0064 27.0162 27.0236 27.0182 27.0319 27.0346 27.0444 27.0472 27.051 27.0599 27.0645 27.0677 27.0617 27.0573 27.0506 27.0577 27.0606 27.0668 27.0745 27.0765 27.0751 27.0789 27.0883 27.0755 27.0703 27.075 27.0904 27.0918 27.0888 27.0864 27.1077 27.1025 27.1039 27.1135 27.1306 27.1127 27.1234 27.116 27.1182 27.1349 27.1387 27.127 27.1332 27.1452 27.1444 27.1595 27.1748 27.1542 27.1732 27.1668 27.1849 27.1611 27.1846 27.1917 27.185 27.1944 27.2011 27.2229 27.22 27.2304 27.2391 27.2352 27.2525 27.2504 27.2628 27.2515 27.2676 27.2777 27.2886 27.2858 27.3008 27.3097 27.3151 27.3095 27.32 27.3322 27.3381 27.3299 27.3593 27.3515 27.3549 27.3788 27.3813 27.385 27.3995 27.4007 27.3919 27.4009 27.4203 27.4406 27.4484 27.4506 27.4522 27.4675 27.483 27.4773 27.4795 27.4981 27.5122 27.5208 27.5254 27.5477 27.5361 27.5616 27.5521 27.5762 27.5787 27.5838 27.6068 27.6168 27.6355 27.6393 27.6568 27.6568 27.6776 27.6806 27.6879 27.7038 27.7156 27.7168 27.74 27.7462 27.7367 27.7541 27.7797 27.7995 27.7898 27.8011 27.8196 27.8402 27.8443 27.8553 27.8728 27.9013 27.8879 27.8976 27.911 27.9051 27.9332 27.9531 27.9648 27.9947 27.9932 28.0001 28.0037 27.9791 28.0069 28.0363 28.0656 28.0658 28.1024 28.114 28.1091 28.1398 28.1454 28.1518 28.1818 28.1915 28.1969 28.1979 28.225 28.2322 28.2806 28.2609 28.2934 28.2984 28.3302 28.3265 28.3373 28.3616 28.3736 28.3817 28.3975 28.4263 28.4297 28.4531 28.4766 28.4796 28.4959 28.4978 28.5376 26.6311 26.6232 26.5946 26.5858 26.5964 26.7163 26.7817 26.757 16.0872 16.1173 18.1053 18.1114 18.0461 18.0106 17.8837 15.8829 15.9101 15.9031 15.8954 15.6795 15.5095 15.5193 15.5564 15.5783 15.5306 15.4862 15.4624 15.4231 15.5003 15.7128 15.8797 16.2539 16.5243 16.617 16.3803 16.4864 16.7643 16.7563 16.9264 16.9259 17.1715 17.7855 18.0161 29.3276 29.3604 29.3476 18.0046 29.4044 29.4172 16.2387 16.1678 16.8932 16.8269 16.482 16.2267 16.0642 15.7672 15.743 15.7799 15.8891 15.8427 15.7712 13.5601 13.6333 20.7664 20.7133 20.8196 21.0742 21.2475 21.3631 21.6075 15.8386 21.26 21.6656 21.6447 21.104 21.0602 16.3722 16.3653 16.3133 16.2847 16.4394 16.453 16.4262 16.3489 16.209 15.8773 16.0494 15.955 15.7949 16.0842 14.2909 14.3282 15.1303 14.916
27.9153 27.9104 27.8807 27.8645 27.8735 27.8567 27.8417 27.8383 27.8158 27.8067 27.7889 27.7803 27.7708 27.7481 27.7494 27.7377 27.7262 27.7117 27.6981 27.7 27.6768 27.673 27.6586 27.6621 27.6293 27.6308 27.6174 27.6035 27.6132 27.5953 27.5744 27.5656 27.562 27.5445 27.5267 27.5232 27.5229 27.515 27.4977 27.4983 27.4785 27.4705 27.4602 27.4603 27.4418 27.4293 27.4276 27.4284 27.4123 27.4157 27.3944 27.3848 27.3769 27.3751 27.3704 27.378 27.3483 27.3366 27.3365 27.3306 27.3122 27.3068 27.3158 27.3025 27.2861 27.2721 27.2764 27.2584 27.2607 27.2516 27.2472 27.2323 27.2343 27.2098 27.2169 27.2104 27.2014 27.1848 27.1889 27.1789 27.1814 27.183 27.157 27.1561 27.1544 27.1428 27.1469 27.1504 27.1244 27.1102 27.1266 27.1136 27.1041 27.0965 27.098 27.0863 27.0791 27.084 27.0677 27.0664 27.0639 27.0697 27.0595 27.0412 27.0534 27.0458 27.0359 27.0377 27.0393 27.0361 27.0321 27.0289 27.0236 27.0394 27.0155 27.0103 27.0098 27.0159 27.014 26.9977 26.9973 26.9948 26.9937 26.9957 26.9879 27.0015 26.9833 26.9793 26.9861 26.9775 26.991 26.9658 26.9771 26.9787 26.977 26.979 26.9672 26.9641 26.9729 26.9718 26.957 26.9739 26.9783 26.9636 26.9687 26.9606 26.9616 26.9542 26.9538 26.9874 26.9646 26.9507 26.9523 26.9628 26.9641 26.9686 26.9531 26.9565 26.9608 26.9688 26.9524 26.9565 26.9567 26.9637 26.946 26.9386 26.9376 26.9337 26.9433 26.9339 26.9459 26.9452 26.9537 26.9626 26.9665 26.9781 27.0066 26.9918 26.9933 27.0006 27.013 27.0092 27.0054 27.0073 27.0156 27.0175 27.0021 27.0039 27.0112 27.0122 27.0238 27.0207 27.0201 27.0285 27.0365 27.025 27.0359 27.0336 27.0353 27.0203 27.0412 27.0395 27.0376 27.0527 27.0436 27.0524 27.0479 27.0576 27.0812 27.0669 27.0684 27.0835 27.0993 27.0712 27.0962 27.0812 27.0803 27.0914 27.1055 27.0965 27.1102 27.1164 27.1159 27.1322 27.1258 27.1494 27.1414 27.1605 27.1448 27.1417 27.1479 27.1592 27.1636 27.1762 27.1764 27.1887 27.1918 27.202 27.2216 27.2166 27.221 27.2367 27.248 27.2393 27.2535 27.2748 27.2592 27.2694 27.287 27.2728 27.2704 27.2911 27.2976 27.3088 27.258 27.3234 27.3394 27.3293 27.3456 27.3523 27.3614 27.3513 27.3554 27.3585 27.3863 27.3754 27.4259 27.4166 27.4029 27.4174 27.4328 27.4386 27.4517 27.4635 27.4802 27.4895 27.51 27.5095 27.5144 27.5238 27.5377 27.5462 27.5511 27.5655 27.5725 27.5798 27.5833 27.5965 27.6188 27.6176 27.623 27.6524 27.6754 27.6692 27.6691 27.6963 27.6909 27.6973 27.7169 27.7313 27.7597 27.7725 27.7654 27.7682 27.7944 27.8027 27.8067 27.8199 27.842 27.8531 27.8754 27.8913 27.8949 27.9034 27.9078 27.928 27.9586 27.9804 27.9565 27.9707 27.9807 27.9775 28.0064 28.0092 28.008 28.0446 28.0588 28.0921 28.081 28.0983 28.1024 28.1312 28.1652 28.1516 28.1627 28.1925 28.2016 28.2135 28.2342 28.2455 28.246 28.2631 28.2785 28.2874 28.2962 28.353 28.3538 28.3826 28.3778 28.3993 28.4059 28.4228 28.4153 28.4677 28.4524 26.6317 26.6466 26.5954 26.5845 26.5942 26.6833 26.742 26.7501 16.1197 16.1277 15.9348 15.9542 17.9874 17.8281 17.7758 17.7712 15.9294 15.9829 16.0029 15.786 15.5193 15.5571 15.556 15.6007 15.5807 15.5334 15.5216 15.4623 15.634 15.6906 15.8179 15.993 16.3212 16.4272 16.4638 16.3897 16.6677 16.7109 16.7086 16.8151 17.0582 17.3006 17.9091 17.9573 17.976 17.9966 17.9989 17.9755 16.2088 16.2063 16.177 16.8933 16.9619 16.4483 16.4428 16.0266 15.8312 15.8056 15.8859 15.9575 15.9648 13.5803 13.5793 13.6305 13.6574 20.6014 20.7752 21.1034 21.3421 21.3187 21.1501 15.8149 16.0671 16.0924 16.1138 21.1898 21.0803 16.3586 16.3456 16.2796 16.3227 16.4763 16.4943 16.4768 16.3038 16.2913 15.4172 15.4597 15.3688 15.3259 15.2875 14.232 14.3096 14.2629 14.7925
27.8797 27.8665 27.8486 27.8316 27.8161 27.81 27.8016 27.7784 27.7758 27.7675 27.7494 27.7294 27.7327 27.7097 27.6896 27.6887 27.6749 27.6779 27.6669 27.6416 27.6397 27.6157 27.6034 27.5875 27.5888 27.5796 27.573 27.5679 27.5631 27.5337 27.5285 27.5151 27.5064 27.4944 27.4936 27.4747 27.471 27.4554 27.4543 27.4455 27.4323 27.4214 27.414 27.4065 27.3946 27.4007 27.3916 27.3828 27.3648 27.359 27.3573 27.3401 27.3341 27.3337 27.3267 27.3142 27.301 27.2852 27.2894 27.2801 27.2829 27.2517 27.2541 27.2417 27.2512 27.242 27.2221 27.209 27.1961 27.1977 27.1926 27.178 27.1765 27.1743 27.165 27.1525 27.1556 27.1521 27.1446 27.1349 27.1245 27.1236 27.1221 27.1017 27.0947 27.0885 27.0933 27.0927 27.0838 27.0881 27.0686 27.0696 27.0505 27.0439 27.0518 27.0518 27.0306 27.0364 27.0285 27.0299 27.0133 27.037 27.0141 27.0044 27.0031 26.9949 26.9946 26.9878 26.9887 26.9902 26.9773 26.9761 26.986 26.9828 26.9639 26.9646 26.9595 26.9719 26.9593 26.9618 26.9479 26.9512 26.9449 26.948 26.9422 26.9387 26.9377 26.9308 26.9347 26.9337 26.9263 26.9234 26.9293 26.9343 26.9262 26.9255 26.9241 26.9299 26.9178 26.9179 26.9153 26.9212 26.9297 26.9161 26.9138 26.9216 26.9141 26.9056 26.9164 26.9097 26.9008 26.9092 26.9013 26.9053 26.9021 26.9067 26.9223 26.9097 26.902 26.9127 26.9219 26.8961 26.8919 26.8858 26.8888 26.8827 26.8879 26.8859 26.8896 26.906 26.9078 26.9196 26.927 26.9275 26.9436 26.9351 26.9514 26.9479 26.947 26.9545 26.9675 26.9594 26.9532 26.9452 26.944 26.9576 26.9654 26.9715 26.9694 26.9816 26.9826 26.9815 26.9711 26.9727 26.981 26.973 26.9736 27.0021 26.9886 26.9825 26.9898 26.9969 26.9863 27.002 27.0081 26.9998 27.0177 27.0264 27.0166 27.0161 27.0395 27.0232 27.0262 27.0243 27.0412 27.0284 27.0415 27.0401 27.0624 27.063 27.055 27.0632 27.0734 27.0763 27.0721 27.0832 27.0993 27.0879 27.1043 27.1127 27.1104 27.1258 27.1192 27.119 27.1367 27.1426 27.1564 27.1596 27.1335 27.1708 27.1745 27.1912 27.1744 27.1957 27.1952 27.209 27.1964 27.2197 27.2349 27.2373 27.2361 27.2504 27.2604 27.2734 27.2589 27.2915 27.2851 27.2865 27.2853 27.3063 27.2998 27.3085 27.306 27.3254 27.3275 27.3485 27.3673 27.3601 27.3682 27.362 27.3784 27.3988 27.4085 27.4255 27.4372 27.4459 27.4651 27.442 27.4669 27.4744 27.4973 27.4862 27.5032 27.5249 27.5218 27.5303 27.5542 27.5598 27.5582 27.5874 27.588 27.5904 27.589 27.6102 27.6288 27.6303 27.6296 27.6642 27.6845 27.6897 27.6735 27.6991 27.7176 27.7358 27.7426 27.7563 27.7776 27.799 27.7882 27.7969 27.8254 27.8043 27.8377 27.8564 27.8624 27.8643 27.8857 27.9083 27.9343 27.9335 27.9291 27.9405 27.9423 27.973 27.9912 28.0028 27.9843 28.039 28.0498 28.0317 28.0557 28.0678 28.1008 28.0902 28.1344 28.1369 28.1446 28.1581 28.1985 28.1967 28.1977 28.2196 28.2249 28.2485 28.2662 26.9737 26.9232 28.2955 28.2985 28.3491 28.3539 28.3879 28.3962 28.4125 28.4201 26.6594 26.6191 26.5965 26.5532 26.5576 26.642 15.8961 15.4841 15.885 15.9419 15.9551 17.9402 15.9614 17.7628 17.7316 16.9092 16.8481 16.0681 16.0222 15.5894 15.6167 15.7052 15.6619 15.6595 15.5268 15.5241 15.5224 15.4484 15.5335 15.6473 15.6683 15.9598 15.9825 16.0911 16.3991 16.4841 16.5758 16.5295 16.4206 16.4234 16.8131 17.8967 17.939 17.9468 18.0041 17.9855 17.9932 16.2136 16.1948 16.535 17.0079 16.8269 16.7355 16.4162 16.3037 15.8871 15.873 15.8792 15.9246 15.9553 15.965 13.5741 13.6118 13.6113 13.6622 13.6787 20.7752 21.0222 21.37 21.3453 21.0642 15.825 15.7983 15.9805 16.0479 16.0867 16.143 16.2469 16.2209 16.2263 16.3293 16.476 16.5023 15.8051 15.7202 16.3464 15.198 15.3132 15.3255 15.2844 15.3236 14.2368 14.239 14.1297 14.8782
27.8335 27.7989 27.7802 27.7821 27.765 27.7723 27.7408 27.7324 27.7181 27.7014 27.7039 27.6881 27.6757 27.655 27.6593 27.632 27.6256 27.6297 27.6221 27.591 27.5757 27.5769 27.5683 27.5602 27.542 27.5396 27.523 27.5197 27.5053 27.4962 27.482 27.4822 27.464 27.4611 27.4441 27.4349 27.4257 27.4172 27.3978 27.3961 27.3955 27.372 27.3734 27.3742 27.3437 27.3576 27.3288 27.3187 27.3219 27.309 27.3031 27.3018 27.2879 27.2728 27.2772 27.261 27.2498 27.2579 27.2403 27.2327 27.2321 27.2104 27.2126 27.1973 27.1918 27.1886 27.1776 27.1688 27.1522 27.1544 27.1424 27.1435 27.1425 27.135 27.119 27.1163 27.1 27.0951 27.0965 27.0808 27.0815 27.0691 27.0667 27.068 27.0561 27.048 27.0343 27.0342 27.0309 27.0264 27.0202 27.0072 27.0052 27.0159 27 26.9906 27.0066 26.9845 26.9918 26.9762 26.9655 26.9639 26.9685 26.9714 26.9547 26.9515 26.9463 26.9458 26.9406 26.9408 26.937 26.9368 26.9272 26.9256 26.9296 26.9192 26.9162 26.9168 26.9076 26.9161 26.9157 26.9146 26.8938 26.9032 26.8937 26.8888 26.8905 26.888 26.9029 26.8933 26.8792 26.8805 26.8732 26.8719 26.8752 26.8668 26.8752 26.8634 26.8716 26.8675 26.8725 26.8646 26.8698 26.8784 26.8846 26.8729 26.863 26.86 26.864 26.8683 26.8581 26.8651 26.8646 26.8574 26.8512 26.8643 26.8582 26.8695 26.8483 26.8423 26.8385 26.8427 26.8341 26.8304 26.846 26.8425 26.8492 26.8598 26.8686 26.8713 26.8793 26.8849 26.8913 26.8884 26.8982 26.8965 26.9082 26.895 26.8988 26.9182 26.8947 26.9071 26.9036 26.9051 26.8958 26.9152 26.9306 26.9198 26.916 26.9152 26.9124 26.9103 26.9238 26.9307 26.9255 26.9156 26.9219 26.9364 26.9483 26.9453 26.9359 26.9423 26.9353 26.9364 26.9721 26.9564 26.9717 26.977 26.9615 26.9767 26.9716 26.991 26.9704 26.9864 26.9795 26.9846 27.0041 26.9984 27.0004 27.003 27.0146 27.0105 27.0294 27.0179 27.0262 27.0272 27.0365 27.062 27.0475 27.0609 27.0568 27.0663 27.0707 27.0792 27.0843 27.0984 27.1008 27.1111 27.1077 27.1223 27.1266 27.1432 27.131 27.1552 27.1446 27.1677 27.1483 27.1711 27.176 27.1829 27.1842 27.1947 27.1874 27.2087 27.2046 27.2242 27.2289 27.226 27.2507 27.2625 27.2668 27.2642 27.2694 27.268 27.2716 27.2995 27.3225 27.3137 27.3265 27.3443 27.3403 27.3536 27.3691 27.3611 27.3802 27.3928 27.3976 27.3946 27.402 27.4277 27.4281 27.4455 27.4649 27.4362 27.4752 27.4792 27.478 27.4931 27.5159 27.5301 27.5023 27.5423 27.5656 27.5765 27.5905 27.606 27.6025 27.6156 27.628 27.6271 27.643 27.6584 27.6759 27.6857 27.6986 27.7035 27.7032 27.7348 27.7481 27.7535 27.7861 27.7755 27.7884 27.8018 27.8211 27.833 27.8401 27.859 27.8567 27.8708 27.8861 27.8825 27.902 27.906 27.9303 27.9441 27.9705 27.9857 27.9977 27.9945 28.0031 28.0218 28.0448 28.0705 28.087 28.0605 28.0852 28.1403 28.1217 28.146 28.1531 28.1765 28.1502 28.2157 28.2041 27.0077 26.9496 26.8792 26.8524 28.298 26.7727 28.3382 28.3392 28.353 28.3683 26.6799 26.6302 26.5941 26.5646 26.5525 16.2816 16.269 15.8698 15.8573 15.8085 15.8652 15.8834 15.851 15.7036 15.7474 16.8604 16.853 16.3621 16.0662 15.6556 15.6421 15.7137 15.7258 15.7291 15.4567 15.483 15.4647 15.4162 15.5095 15.5851 15.5892 15.6339 15.9115 16.169 16.4944 16.481 16.4772 16.4802 16.394 16.3856 16.8585 17.6174 17.8882 17.8206 17.47 17.5306 17.9457 16.204 16.206 16.409 17.0536 17.0085 16.5604 16.3534 16.3194 16.1045 15.8929 15.9138 15.9591 15.9506 15.9453 15.9765 15.9205 15.9885 13.6256 13.6652 20.8783 21.0856 21.3376 21.2314 15.9044 15.8263 15.7844 16.0357 16.0305 16.1325 16.1469 16.1736 16.0953 16.115 16.2468 15.8357 15.814 15.7158 15.496 14.6901 14.8444 15.0816 15.1815 15.3156 14.3979 14.3139 14.2748 14.1194 14.9089
